ply
format ascii 1.0
element vertex 1710
property float x
property float y
property float z
end_header
0.057262 -0.015936 0.424000
0.059204 -0.015936 0.424000
0.061146 -0.015936 0.424000
0.062939 -0.015899 0.423000
0.063908 -0.015899 0.423000
0.065690 -0.015861 0.422000
0.067623 -0.015861 0.422000
0.069556 -0.015861 0.422000
0.070522 -0.015861 0.422000
0.072284 -0.015824 0.421000
0.074212 -0.015824 0.421000
0.075598 -0.015711 0.418000
0.076372 -0.015673 0.417000
0.077906 -0.015598 0.415000
0.079423 -0.015523 0.413000
0.081314 -0.015523 0.413000
0.083206 -0.015523 0.413000
0.084152 -0.015523 0.413000
0.086044 -0.015523 0.413000
0.087723 -0.015485 0.412000
0.089610 -0.015485 0.412000
0.090553 -0.015485 0.412000
0.092440 -0.015485 0.412000
0.094328 -0.015485 0.412000
0.096215 -0.015485 0.412000
0.157293 -0.025070 0.667000
0.160107 -0.025032 0.666000
0.163403 -0.025070 0.667000
0.166957 -0.025145 0.669000
0.170276 -0.025182 0.670000
0.171810 -0.025182 0.670000
0.174879 -0.025182 0.670000
0.177682 -0.025145 0.669000
0.180206 -0.025070 0.667000
0.181461 -0.025032 0.666000
0.184235 -0.024994 0.665000
0.186999 -0.024957 0.664000
0.189754 -0.024919 0.663000
0.191273 -0.024919 0.663000
0.194310 -0.024919 0.663000
0.197346 -0.024919 0.663000
0.200383 -0.024919 0.663000
0.201902 -0.024919 0.663000
0.204938 -0.024919 0.663000
0.207975 -0.024919 0.663000
0.210376 -0.024844 0.661000
0.212758 -0.024769 0.659000
0.213616 -0.024694 0.657000
0.215637 -0.024581 0.654000
0.217295 -0.024431 0.650000
0.219595 -0.024355 0.648000
0.220737 -0.024318 0.647000
0.223009 -0.024243 0.645000
0.225964 -0.024243 0.645000
0.228918 -0.024243 0.645000
0.230395 -0.024243 0.645000
0.233350 -0.024243 0.645000
0.235938 -0.024205 0.644000
0.238888 -0.024205 0.644000
0.241837 -0.024205 0.644000
0.243312 -0.024205 0.644000
0.246262 -0.024205 0.644000
0.249212 -0.024205 0.644000
0.252553 -0.024243 0.645000
0.053504 -0.015001 0.425000
0.055450 -0.015001 0.425000
0.056424 -0.015001 0.425000
0.058370 -0.015001 0.425000
0.060175 -0.014965 0.424000
0.062117 -0.014965 0.424000
0.062939 -0.014930 0.423000
0.064877 -0.014930 0.423000
0.066656 -0.014895 0.422000
0.068589 -0.014895 0.422000
0.070522 -0.014895 0.422000
0.071489 -0.014895 0.422000
0.073422 -0.014895 0.422000
0.074998 -0.014824 0.420000
0.076189 -0.014683 0.416000
0.076956 -0.014648 0.415000
0.078667 -0.014612 0.414000
0.080369 -0.014577 0.413000
0.082061 -0.014542 0.412000
0.083005 -0.014542 0.412000
0.084892 -0.014542 0.412000
0.086779 -0.014542 0.412000
0.088666 -0.014542 0.412000
0.089610 -0.014542 0.412000
0.091497 -0.014542 0.412000
0.093384 -0.014542 0.412000
0.095271 -0.014542 0.412000
0.096922 -0.014506 0.411000
0.158106 -0.023436 0.664000
0.161147 -0.023436 0.664000
0.164436 -0.023471 0.665000
0.167734 -0.023507 0.666000
0.169259 -0.023507 0.666000
0.172310 -0.023507 0.666000
0.175360 -0.023507 0.666000
0.177875 -0.023436 0.664000
0.179125 -0.023401 0.663000
0.181888 -0.023366 0.662000
0.184361 -0.023295 0.660000
0.187384 -0.023295 0.660000
0.190407 -0.023295 0.660000
0.191919 -0.023295 0.660000
0.194942 -0.023295 0.660000
0.197965 -0.023295 0.660000
0.200988 -0.023295 0.660000
0.202500 -0.023295 0.660000
0.205523 -0.023295 0.660000
0.207914 -0.023224 0.658000
0.210287 -0.023154 0.656000
0.211466 -0.023118 0.655000
0.213157 -0.022977 0.651000
0.215142 -0.022871 0.648000
0.217101 -0.022765 0.645000
0.218239 -0.022730 0.644000
0.220502 -0.022660 0.642000
0.223443 -0.022660 0.642000
0.226383 -0.022660 0.642000
0.229324 -0.022660 0.642000
0.230794 -0.022660 0.642000
0.233371 -0.022624 0.641000
0.236307 -0.022624 0.641000
0.239243 -0.022624 0.641000
0.240711 -0.022624 0.641000
0.243647 -0.022624 0.641000
0.246583 -0.022624 0.641000
0.249519 -0.022624 0.641000
0.052530 -0.015001 0.425000
0.054477 -0.015001 0.425000
0.056424 -0.015001 0.425000
0.057397 -0.015001 0.425000
0.059344 -0.015001 0.425000
0.061146 -0.014965 0.424000
0.062939 -0.014930 0.423000
0.063908 -0.014930 0.423000
0.065846 -0.014930 0.423000
0.067623 -0.014895 0.422000
0.069556 -0.014895 0.422000
0.070522 -0.014895 0.422000
0.072455 -0.014895 0.422000
0.074212 -0.014859 0.421000
0.075417 -0.014718 0.417000
0.076189 -0.014683 0.416000
0.077906 -0.014648 0.415000
0.079423 -0.014577 0.413000
0.081118 -0.014542 0.412000
0.083005 -0.014542 0.412000
0.083948 -0.014542 0.412000
0.085835 -0.014542 0.412000
0.087723 -0.014542 0.412000
0.089610 -0.014542 0.412000
0.090553 -0.014542 0.412000
0.092440 -0.014542 0.412000
0.094328 -0.014542 0.412000
0.096215 -0.014542 0.412000
0.096922 -0.014506 0.411000
0.159627 -0.023436 0.664000
0.162668 -0.023436 0.664000
0.166208 -0.023507 0.666000
0.169259 -0.023507 0.666000
0.170784 -0.023507 0.666000
0.173835 -0.023507 0.666000
0.176620 -0.023471 0.665000
0.179125 -0.023401 0.663000
0.180371 -0.023366 0.662000
0.183127 -0.023330 0.661000
0.185873 -0.023295 0.660000
0.188896 -0.023295 0.660000
0.190407 -0.023295 0.660000
0.193430 -0.023295 0.660000
0.196453 -0.023295 0.660000
0.199477 -0.023295 0.660000
0.200988 -0.023295 0.660000
0.204011 -0.023295 0.660000
0.206721 -0.023260 0.659000
0.209102 -0.023189 0.657000
0.211466 -0.023118 0.655000
0.212316 -0.023048 0.653000
0.214318 -0.022942 0.650000
0.215958 -0.022801 0.646000
0.218239 -0.022730 0.644000
0.219373 -0.022695 0.643000
0.221972 -0.022660 0.642000
0.224913 -0.022660 0.642000
0.227854 -0.022660 0.642000
0.229324 -0.022660 0.642000
0.232264 -0.022660 0.642000
0.234839 -0.022624 0.641000
0.237775 -0.022624 0.641000
0.240711 -0.022624 0.641000
0.242179 -0.022624 0.641000
0.245115 -0.022624 0.641000
0.248051 -0.022624 0.641000
0.251379 -0.022660 0.642000
0.053504 -0.015001 0.425000
0.055450 -0.015001 0.425000
0.056424 -0.015001 0.425000
0.058370 -0.015001 0.425000
0.060175 -0.014965 0.424000
0.062117 -0.014965 0.424000
0.062939 -0.014930 0.423000
0.064877 -0.014930 0.423000
0.066656 -0.014895 0.422000
0.068589 -0.014895 0.422000
0.070522 -0.014895 0.422000
0.071489 -0.014895 0.422000
0.073422 -0.014895 0.422000
0.074998 -0.014824 0.420000
0.076189 -0.014683 0.416000
0.076956 -0.014648 0.415000
0.078667 -0.014612 0.414000
0.080369 -0.014577 0.413000
0.082061 -0.014542 0.412000
0.083005 -0.014542 0.412000
0.084892 -0.014542 0.412000
0.086779 -0.014542 0.412000
0.088666 -0.014542 0.412000
0.089610 -0.014542 0.412000
0.091497 -0.014542 0.412000
0.093384 -0.014542 0.412000
0.095271 -0.014542 0.412000
0.096922 -0.014506 0.411000
0.158106 -0.023436 0.664000
0.161147 -0.023436 0.664000
0.164436 -0.023471 0.665000
0.167734 -0.023507 0.666000
0.169259 -0.023507 0.666000
0.172310 -0.023507 0.666000
0.175360 -0.023507 0.666000
0.177875 -0.023436 0.664000
0.179125 -0.023401 0.663000
0.181888 -0.023366 0.662000
0.184361 -0.023295 0.660000
0.187384 -0.023295 0.660000
0.190407 -0.023295 0.660000
0.191919 -0.023295 0.660000
0.194942 -0.023295 0.660000
0.197965 -0.023295 0.660000
0.200988 -0.023295 0.660000
0.202500 -0.023295 0.660000
0.205523 -0.023295 0.660000
0.207914 -0.023224 0.658000
0.210287 -0.023154 0.656000
0.211466 -0.023118 0.655000
0.213157 -0.022977 0.651000
0.215142 -0.022871 0.648000
0.217101 -0.022765 0.645000
0.218239 -0.022730 0.644000
0.220502 -0.022660 0.642000
0.223443 -0.022660 0.642000
0.226383 -0.022660 0.642000
0.229324 -0.022660 0.642000
0.230794 -0.022660 0.642000
0.233371 -0.022624 0.641000
0.236307 -0.022624 0.641000
0.239243 -0.022624 0.641000
0.240711 -0.022624 0.641000
0.243647 -0.022624 0.641000
0.246583 -0.022624 0.641000
0.249519 -0.022624 0.641000
0.052530 -0.014027 0.425000
0.054477 -0.014027 0.425000
0.056424 -0.014027 0.425000
0.057397 -0.014027 0.425000
0.059344 -0.014027 0.425000
0.061146 -0.013994 0.424000
0.062939 -0.013961 0.423000
0.063908 -0.013961 0.423000
0.065846 -0.013961 0.423000
0.067623 -0.013928 0.422000
0.069556 -0.013928 0.422000
0.070522 -0.013928 0.422000
0.072455 -0.013928 0.422000
0.074212 -0.013895 0.421000
0.075779 -0.013829 0.419000
0.076372 -0.013763 0.417000
0.078094 -0.013730 0.416000
0.079615 -0.013664 0.414000
0.081118 -0.013598 0.412000
0.083005 -0.013598 0.412000
0.083948 -0.013598 0.412000
0.085835 -0.013598 0.412000
0.087723 -0.013598 0.412000
0.089610 -0.013598 0.412000
0.090553 -0.013598 0.412000
0.092440 -0.013598 0.412000
0.094328 -0.013598 0.412000
0.096215 -0.013598 0.412000
0.096922 -0.013565 0.411000
0.159146 -0.021849 0.662000
0.161933 -0.021816 0.661000
0.165210 -0.021849 0.662000
0.168242 -0.021849 0.662000
0.169759 -0.021849 0.662000
0.172791 -0.021849 0.662000
0.175557 -0.021816 0.661000
0.178045 -0.021750 0.659000
0.179282 -0.021717 0.658000
0.182018 -0.021684 0.657000
0.184746 -0.021651 0.656000
0.187751 -0.021651 0.656000
0.189253 -0.021651 0.656000
0.192258 -0.021651 0.656000
0.195263 -0.021651 0.656000
0.198268 -0.021651 0.656000
0.199770 -0.021651 0.656000
0.202775 -0.021651 0.656000
0.205466 -0.021618 0.655000
0.207829 -0.021552 0.653000
0.210175 -0.021486 0.651000
0.211015 -0.021420 0.649000
0.212999 -0.021321 0.646000
0.214955 -0.021222 0.643000
0.217222 -0.021156 0.641000
0.218349 -0.021123 0.640000
0.220935 -0.021090 0.639000
0.223862 -0.021090 0.639000
0.226789 -0.021090 0.639000
0.228252 -0.021090 0.639000
0.231179 -0.021090 0.639000
0.233740 -0.021057 0.638000
0.236662 -0.021057 0.638000
0.239584 -0.021057 0.638000
0.241045 -0.021057 0.638000
0.243968 -0.021057 0.638000
0.246890 -0.021057 0.638000
0.250204 -0.021090 0.639000
0.053504 -0.014027 0.425000
0.055450 -0.014027 0.425000
0.056424 -0.014027 0.425000
0.058370 -0.014027 0.425000
0.060175 -0.013994 0.424000
0.062117 -0.013994 0.424000
0.062939 -0.013961 0.423000
0.064877 -0.013961 0.423000
0.066656 -0.013928 0.422000
0.068589 -0.013928 0.422000
0.070522 -0.013928 0.422000
0.071489 -0.013928 0.422000
0.073422 -0.013928 0.422000
0.075176 -0.013895 0.421000
0.076372 -0.013763 0.417000
0.077141 -0.013730 0.416000
0.078857 -0.013697 0.415000
0.080369 -0.013631 0.413000
0.082061 -0.013598 0.412000
0.083005 -0.013598 0.412000
0.084892 -0.013598 0.412000
0.086779 -0.013598 0.412000
0.088666 -0.013598 0.412000
0.089610 -0.013598 0.412000
0.091497 -0.013598 0.412000
0.093384 -0.013598 0.412000
0.095271 -0.013598 0.412000
0.096922 -0.013565 0.411000
0.157630 -0.021849 0.662000
0.160419 -0.021816 0.661000
0.163694 -0.021849 0.662000
0.166726 -0.021849 0.662000
0.168242 -0.021849 0.662000
0.171275 -0.021849 0.662000
0.174307 -0.021849 0.662000
0.176803 -0.021783 0.660000
0.178045 -0.021750 0.659000
0.180789 -0.021717 0.658000
0.183244 -0.021651 0.656000
0.186249 -0.021651 0.656000
0.189253 -0.021651 0.656000
0.190756 -0.021651 0.656000
0.193760 -0.021651 0.656000
0.196765 -0.021651 0.656000
0.199770 -0.021651 0.656000
0.201272 -0.021651 0.656000
0.204277 -0.021651 0.656000
0.206650 -0.021585 0.654000
0.209004 -0.021519 0.652000
0.210175 -0.021486 0.651000
0.211847 -0.021354 0.647000
0.213814 -0.021255 0.644000
0.216091 -0.021189 0.642000
0.217222 -0.021156 0.641000
0.219472 -0.021090 0.639000
0.222398 -0.021090 0.639000
0.225325 -0.021090 0.639000
0.228252 -0.021090 0.639000
0.229716 -0.021090 0.639000
0.232278 -0.021057 0.638000
0.235201 -0.021057 0.638000
0.238123 -0.021057 0.638000
0.239584 -0.021057 0.638000
0.242507 -0.021057 0.638000
0.245429 -0.021057 0.638000
0.248351 -0.021057 0.638000
0.052654 -0.013085 0.426000
0.054605 -0.013085 0.426000
0.056424 -0.013054 0.425000
0.057397 -0.013054 0.425000
0.059344 -0.013054 0.425000
0.061146 -0.013023 0.424000
0.062939 -0.012992 0.423000
0.063908 -0.012992 0.423000
0.065846 -0.012992 0.423000
0.067623 -0.012962 0.422000
0.069556 -0.012962 0.422000
0.070522 -0.012962 0.422000
0.072455 -0.012962 0.422000
0.074212 -0.012931 0.421000
0.075598 -0.012839 0.418000
0.076006 -0.012747 0.415000
0.077531 -0.012685 0.413000
0.079230 -0.012655 0.412000
0.080921 -0.012624 0.411000
0.082803 -0.012624 0.411000
0.083745 -0.012624 0.411000
0.085627 -0.012624 0.411000
0.087510 -0.012624 0.411000
0.089392 -0.012624 0.411000
0.090333 -0.012624 0.411000
0.092216 -0.012624 0.411000
0.094328 -0.012655 0.412000
0.096215 -0.012655 0.412000
0.096922 -0.012624 0.411000
0.158665 -0.020272 0.660000
0.161198 -0.020210 0.658000
0.164212 -0.020210 0.658000
0.167226 -0.020210 0.658000
0.168733 -0.020210 0.658000
0.171747 -0.020210 0.658000
0.174495 -0.020180 0.657000
0.176964 -0.020118 0.655000
0.178192 -0.020088 0.654000
0.180910 -0.020057 0.653000
0.183620 -0.020026 0.652000
0.186606 -0.020026 0.652000
0.188099 -0.020026 0.652000
0.191086 -0.020026 0.652000
0.194072 -0.020026 0.652000
0.197059 -0.020026 0.652000
0.198552 -0.020026 0.652000
0.201538 -0.020026 0.652000
0.204211 -0.019995 0.651000
0.206556 -0.019934 0.649000
0.208883 -0.019873 0.647000
0.209715 -0.019811 0.645000
0.211680 -0.019719 0.642000
0.213952 -0.019658 0.640000
0.216206 -0.019596 0.638000
0.217326 -0.019565 0.637000
0.219898 -0.019535 0.636000
0.222811 -0.019535 0.636000
0.225724 -0.019535 0.636000
0.227181 -0.019535 0.636000
0.230094 -0.019535 0.636000
0.232641 -0.019504 0.635000
0.235549 -0.019504 0.635000
0.238458 -0.019504 0.635000
0.239912 -0.019504 0.635000
0.242821 -0.019504 0.635000
0.245729 -0.019504 0.635000
0.249029 -0.019535 0.636000
0.052654 -0.013085 0.426000
0.054605 -0.013085 0.426000
0.056424 -0.013054 0.425000
0.058370 -0.013054 0.425000
0.059344 -0.013054 0.425000
0.061146 -0.013023 0.424000
0.062939 -0.012992 0.423000
0.064877 -0.012992 0.423000
0.066656 -0.012962 0.422000
0.067623 -0.012962 0.422000
0.069556 -0.012962 0.422000
0.071489 -0.012962 0.422000
0.073422 -0.012962 0.422000
0.074212 -0.012931 0.421000
0.075598 -0.012839 0.418000
0.076585 -0.012685 0.413000
0.078477 -0.012685 0.413000
0.079230 -0.012655 0.412000
0.080921 -0.012624 0.411000
0.082803 -0.012624 0.411000
0.084686 -0.012624 0.411000
0.086568 -0.012624 0.411000
0.087510 -0.012624 0.411000
0.089392 -0.012624 0.411000
0.091275 -0.012624 0.411000
0.093384 -0.012655 0.412000
0.094328 -0.012655 0.412000
0.096215 -0.012655 0.412000
0.157153 -0.020272 0.660000
0.159691 -0.020210 0.658000
0.161198 -0.020210 0.658000
0.164212 -0.020210 0.658000
0.167226 -0.020210 0.658000
0.170240 -0.020210 0.658000
0.171747 -0.020210 0.658000
0.174495 -0.020180 0.657000
0.176964 -0.020118 0.655000
0.179689 -0.020088 0.654000
0.182126 -0.020026 0.652000
0.183620 -0.020026 0.652000
0.186606 -0.020026 0.652000
0.189593 -0.020026 0.652000
0.192579 -0.020026 0.652000
0.194072 -0.020026 0.652000
0.197059 -0.020026 0.652000
0.200045 -0.020026 0.652000
0.203031 -0.020026 0.652000
0.204211 -0.019995 0.651000
0.206556 -0.019934 0.649000
0.208883 -0.019873 0.647000
0.210537 -0.019750 0.643000
0.212818 -0.019688 0.641000
0.213952 -0.019658 0.640000
0.216206 -0.019596 0.638000
0.218441 -0.019535 0.636000
0.221354 -0.019535 0.636000
0.222811 -0.019535 0.636000
0.225724 -0.019535 0.636000
0.228637 -0.019535 0.636000
0.231186 -0.019504 0.635000
0.232641 -0.019504 0.635000
0.235549 -0.019504 0.635000
0.238458 -0.019504 0.635000
0.241366 -0.019504 0.635000
0.242821 -0.019504 0.635000
0.245729 -0.019504 0.635000
0.249029 -0.019535 0.636000
0.053629 -0.012109 0.426000
0.055450 -0.012080 0.425000
0.056424 -0.012080 0.425000
0.058370 -0.012080 0.425000
0.060175 -0.012052 0.424000
0.062117 -0.012052 0.424000
0.062939 -0.012024 0.423000
0.064877 -0.012024 0.423000
0.066656 -0.011995 0.422000
0.068589 -0.011995 0.422000
0.070355 -0.011967 0.421000
0.071319 -0.011967 0.421000
0.073248 -0.011967 0.421000
0.074819 -0.011910 0.419000
0.075822 -0.011768 0.414000
0.076214 -0.011683 0.411000
0.078097 -0.011683 0.411000
0.079785 -0.011654 0.410000
0.081663 -0.011654 0.410000
0.082602 -0.011654 0.410000
0.084480 -0.011654 0.410000
0.086358 -0.011654 0.410000
0.088236 -0.011654 0.410000
0.089175 -0.011654 0.410000
0.091053 -0.011654 0.410000
0.093157 -0.011683 0.411000
0.095040 -0.011683 0.411000
0.096922 -0.011683 0.411000
0.097626 -0.011654 0.410000
0.158963 -0.018618 0.655000
0.161963 -0.018618 0.655000
0.164963 -0.018618 0.655000
0.166463 -0.018618 0.655000
0.169464 -0.018618 0.655000
0.172201 -0.018590 0.654000
0.174660 -0.018533 0.652000
0.175883 -0.018504 0.651000
0.178590 -0.018476 0.650000
0.181009 -0.018419 0.648000
0.183977 -0.018419 0.648000
0.186945 -0.018419 0.648000
0.188429 -0.018419 0.648000
0.191397 -0.018419 0.648000
0.194366 -0.018419 0.648000
0.197334 -0.018419 0.648000
0.198818 -0.018419 0.648000
0.201786 -0.018419 0.648000
0.204122 -0.018362 0.646000
0.206440 -0.018306 0.644000
0.207592 -0.018277 0.643000
0.209555 -0.018192 0.640000
0.211822 -0.018135 0.638000
0.214071 -0.018078 0.636000
0.215189 -0.018050 0.635000
0.217411 -0.017993 0.633000
0.220310 -0.017993 0.633000
0.223210 -0.017993 0.633000
0.226109 -0.017993 0.633000
0.227559 -0.017993 0.633000
0.230094 -0.017964 0.632000
0.232989 -0.017964 0.632000
0.235884 -0.017964 0.632000
0.237331 -0.017964 0.632000
0.240226 -0.017964 0.632000
0.243121 -0.017964 0.632000
0.246016 -0.017964 0.632000
0.247855 -0.017993 0.633000
0.054605 -0.012109 0.426000
0.056424 -0.012080 0.425000
0.057397 -0.012080 0.425000
0.059344 -0.012080 0.425000
0.061146 -0.012052 0.424000
0.062939 -0.012024 0.423000
0.063908 -0.012024 0.423000
0.065846 -0.012024 0.423000
0.067623 -0.011995 0.422000
0.069556 -0.011995 0.422000
0.070355 -0.011967 0.421000
0.072284 -0.011967 0.421000
0.074036 -0.011938 0.420000
0.075417 -0.011853 0.417000
0.075822 -0.011768 0.414000
0.077156 -0.011683 0.411000
0.078846 -0.011654 0.410000
0.080724 -0.011654 0.410000
0.082602 -0.011654 0.410000
0.083541 -0.011654 0.410000
0.085419 -0.011654 0.410000
0.087297 -0.011654 0.410000
0.089175 -0.011654 0.410000
0.090114 -0.011654 0.410000
0.091992 -0.011654 0.410000
0.094099 -0.011683 0.411000
0.095981 -0.011683 0.411000
0.096922 -0.011683 0.411000
0.098565 -0.011654 0.410000
0.160463 -0.018618 0.655000
0.163463 -0.018618 0.655000
0.166463 -0.018618 0.655000
0.167964 -0.018618 0.655000
0.170703 -0.018590 0.654000
0.173433 -0.018561 0.653000
0.175883 -0.018504 0.651000
0.177102 -0.018476 0.650000
0.179802 -0.018448 0.649000
0.182493 -0.018419 0.648000
0.185461 -0.018419 0.648000
0.186945 -0.018419 0.648000
0.189913 -0.018419 0.648000
0.192882 -0.018419 0.648000
0.195850 -0.018419 0.648000
0.197334 -0.018419 0.648000
0.200302 -0.018419 0.648000
0.202956 -0.018391 0.647000
0.205283 -0.018334 0.645000
0.207592 -0.018277 0.643000
0.208414 -0.018220 0.641000
0.210691 -0.018163 0.639000
0.212949 -0.018107 0.637000
0.215189 -0.018050 0.635000
0.216302 -0.018021 0.634000
0.218860 -0.017993 0.633000
0.221760 -0.017993 0.633000
0.224659 -0.017993 0.633000
0.226109 -0.017993 0.633000
0.229008 -0.017993 0.633000
0.231541 -0.017964 0.632000
0.234436 -0.017964 0.632000
0.237331 -0.017964 0.632000
0.238779 -0.017964 0.632000
0.241673 -0.017964 0.632000
0.244568 -0.017964 0.632000
0.247855 -0.017993 0.633000
0.053629 -0.011133 0.426000
0.055581 -0.011133 0.426000
0.056556 -0.011133 0.426000
0.058370 -0.011107 0.425000
0.060175 -0.011081 0.424000
0.062117 -0.011081 0.424000
0.062939 -0.011055 0.423000
0.064877 -0.011055 0.423000
0.066656 -0.011029 0.422000
0.068589 -0.011029 0.422000
0.070355 -0.011003 0.421000
0.071319 -0.011003 0.421000
0.073248 -0.011003 0.421000
0.074640 -0.010924 0.418000
0.075456 -0.010767 0.412000
0.076029 -0.010715 0.410000
0.077907 -0.010715 0.410000
0.079396 -0.010663 0.408000
0.081264 -0.010663 0.408000
0.082199 -0.010663 0.408000
0.084068 -0.010663 0.408000
0.085936 -0.010663 0.408000
0.088020 -0.010689 0.409000
0.088957 -0.010689 0.409000
0.090831 -0.010689 0.409000
0.092931 -0.010715 0.410000
0.094809 -0.010715 0.410000
0.096687 -0.010715 0.410000
0.097626 -0.010715 0.410000
0.158235 -0.017040 0.652000
0.161221 -0.017040 0.652000
0.164208 -0.017040 0.652000
0.165701 -0.017040 0.652000
0.168687 -0.017040 0.652000
0.171411 -0.017014 0.651000
0.173857 -0.016961 0.649000
0.175073 -0.016935 0.648000
0.177766 -0.016909 0.647000
0.180171 -0.016857 0.645000
0.183125 -0.016857 0.645000
0.186080 -0.016857 0.645000
0.187557 -0.016857 0.645000
0.190511 -0.016857 0.645000
0.193466 -0.016857 0.645000
0.196420 -0.016857 0.645000
0.197897 -0.016857 0.645000
0.200540 -0.016831 0.644000
0.202858 -0.016778 0.642000
0.205158 -0.016726 0.640000
0.206301 -0.016700 0.639000
0.208573 -0.016648 0.637000
0.210826 -0.016595 0.635000
0.213062 -0.016543 0.633000
0.214173 -0.016517 0.632000
0.216380 -0.016465 0.630000
0.219266 -0.016465 0.630000
0.222152 -0.016465 0.630000
0.225037 -0.016465 0.630000
0.226480 -0.016465 0.630000
0.229002 -0.016439 0.629000
0.231883 -0.016439 0.629000
0.234764 -0.016439 0.629000
0.236205 -0.016439 0.629000
0.239086 -0.016439 0.629000
0.241967 -0.016439 0.629000
0.244848 -0.016439 0.629000
0.246680 -0.016465 0.630000
0.054605 -0.011133 0.426000
0.056556 -0.011133 0.426000
0.057397 -0.011107 0.425000
0.059344 -0.011107 0.425000
0.061146 -0.011081 0.424000
0.062939 -0.011055 0.423000
0.063908 -0.011055 0.423000
0.065846 -0.011055 0.423000
0.067623 -0.011029 0.422000
0.069556 -0.011029 0.422000
0.070355 -0.011003 0.421000
0.072284 -0.011003 0.421000
0.074036 -0.010976 0.420000
0.075236 -0.010872 0.416000
0.075456 -0.010767 0.412000
0.076968 -0.010715 0.410000
0.078461 -0.010663 0.408000
0.080330 -0.010663 0.408000
0.082199 -0.010663 0.408000
0.083133 -0.010663 0.408000
0.085002 -0.010663 0.408000
0.087084 -0.010689 0.409000
0.088957 -0.010689 0.409000
0.089894 -0.010689 0.409000
0.091767 -0.010689 0.409000
0.093870 -0.010715 0.410000
0.095748 -0.010715 0.410000
0.096687 -0.010715 0.410000
0.098565 -0.010715 0.410000
0.159728 -0.017040 0.652000
0.162715 -0.017040 0.652000
0.165701 -0.017040 0.652000
0.167194 -0.017040 0.652000
0.169920 -0.017014 0.651000
0.172636 -0.016987 0.650000
0.175073 -0.016935 0.648000
0.176284 -0.016909 0.647000
0.178971 -0.016883 0.646000
0.181648 -0.016857 0.645000
0.184603 -0.016857 0.645000
0.186080 -0.016857 0.645000
0.189034 -0.016857 0.645000
0.191989 -0.016857 0.645000
0.194943 -0.016857 0.645000
0.196420 -0.016857 0.645000
0.199374 -0.016857 0.645000
0.201702 -0.016804 0.643000
0.204010 -0.016752 0.641000
0.206301 -0.016700 0.639000
0.207439 -0.016674 0.638000
0.209702 -0.016622 0.636000
0.211946 -0.016569 0.634000
0.214173 -0.016517 0.632000
0.215279 -0.016491 0.631000
0.217823 -0.016465 0.630000
0.220709 -0.016465 0.630000
0.223595 -0.016465 0.630000
0.225037 -0.016465 0.630000
0.227923 -0.016465 0.630000
0.230442 -0.016439 0.629000
0.233323 -0.016439 0.629000
0.236205 -0.016439 0.629000
0.237645 -0.016439 0.629000
0.240526 -0.016439 0.629000
0.243407 -0.016439 0.629000
0.246680 -0.016465 0.630000
0.053629 -0.011133 0.426000
0.055581 -0.011133 0.426000
0.056556 -0.011133 0.426000
0.058370 -0.011107 0.425000
0.060175 -0.011081 0.424000
0.062117 -0.011081 0.424000
0.062939 -0.011055 0.423000
0.064877 -0.011055 0.423000
0.066656 -0.011029 0.422000
0.068589 -0.011029 0.422000
0.070355 -0.011003 0.421000
0.071319 -0.011003 0.421000
0.073248 -0.011003 0.421000
0.074640 -0.010924 0.418000
0.075456 -0.010767 0.412000
0.076029 -0.010715 0.410000
0.077907 -0.010715 0.410000
0.079396 -0.010663 0.408000
0.081264 -0.010663 0.408000
0.082199 -0.010663 0.408000
0.084068 -0.010663 0.408000
0.085936 -0.010663 0.408000
0.088020 -0.010689 0.409000
0.088957 -0.010689 0.409000
0.090831 -0.010689 0.409000
0.092931 -0.010715 0.410000
0.094809 -0.010715 0.410000
0.096687 -0.010715 0.410000
0.097626 -0.010715 0.410000
0.158235 -0.017040 0.652000
0.161221 -0.017040 0.652000
0.164208 -0.017040 0.652000
0.165701 -0.017040 0.652000
0.168687 -0.017040 0.652000
0.171411 -0.017014 0.651000
0.173857 -0.016961 0.649000
0.175073 -0.016935 0.648000
0.177766 -0.016909 0.647000
0.180171 -0.016857 0.645000
0.183125 -0.016857 0.645000
0.186080 -0.016857 0.645000
0.187557 -0.016857 0.645000
0.190511 -0.016857 0.645000
0.193466 -0.016857 0.645000
0.196420 -0.016857 0.645000
0.197897 -0.016857 0.645000
0.200540 -0.016831 0.644000
0.202858 -0.016778 0.642000
0.205158 -0.016726 0.640000
0.206301 -0.016700 0.639000
0.208573 -0.016648 0.637000
0.210826 -0.016595 0.635000
0.213062 -0.016543 0.633000
0.214173 -0.016517 0.632000
0.216380 -0.016465 0.630000
0.219266 -0.016465 0.630000
0.222152 -0.016465 0.630000
0.225037 -0.016465 0.630000
0.226480 -0.016465 0.630000
0.229002 -0.016439 0.629000
0.231883 -0.016439 0.629000
0.234764 -0.016439 0.629000
0.236205 -0.016439 0.629000
0.239086 -0.016439 0.629000
0.241967 -0.016439 0.629000
0.244848 -0.016439 0.629000
0.246680 -0.016465 0.630000
0.054605 -0.010158 0.426000
0.056556 -0.010158 0.426000
0.057532 -0.010158 0.426000
0.059344 -0.010134 0.425000
0.061146 -0.010110 0.424000
0.062939 -0.010086 0.423000
0.063908 -0.010086 0.423000
0.065846 -0.010086 0.423000
0.067623 -0.010062 0.422000
0.069556 -0.010062 0.422000
0.070355 -0.010038 0.421000
0.072284 -0.010038 0.421000
0.074212 -0.010038 0.421000
0.076140 -0.010038 0.421000
0.077105 -0.010038 0.421000
0.079033 -0.010038 0.421000
0.077884 -0.009657 0.405000
0.079936 -0.009681 0.406000
0.081796 -0.009681 0.406000
0.082726 -0.009681 0.406000
0.084585 -0.009681 0.406000
0.086658 -0.009705 0.407000
0.088522 -0.009705 0.407000
0.089454 -0.009705 0.407000
0.091543 -0.009728 0.408000
0.147902 -0.015403 0.646000
0.150861 -0.015403 0.646000
0.152340 -0.015403 0.646000
0.155299 -0.015403 0.646000
0.158993 -0.015475 0.649000
0.161966 -0.015475 0.649000
0.164939 -0.015475 0.649000
0.166425 -0.015475 0.649000
0.169137 -0.015451 0.648000
0.171839 -0.015427 0.647000
0.174262 -0.015380 0.645000
0.175740 -0.015380 0.645000
0.178417 -0.015356 0.644000
0.181085 -0.015332 0.643000
0.183744 -0.015308 0.642000
0.185214 -0.015308 0.642000
0.188155 -0.015308 0.642000
0.191096 -0.015308 0.642000
0.194036 -0.015308 0.642000
0.195507 -0.015308 0.642000
0.198447 -0.015308 0.642000
0.200760 -0.015260 0.640000
0.203055 -0.015213 0.638000
0.205332 -0.015165 0.636000
0.206463 -0.015141 0.635000
0.208713 -0.015093 0.633000
0.210943 -0.015046 0.631000
0.213156 -0.014998 0.629000
0.214255 -0.014974 0.628000
0.216786 -0.014950 0.627000
0.219658 -0.014950 0.627000
0.222530 -0.014950 0.627000
0.223966 -0.014950 0.627000
0.226838 -0.014950 0.627000
0.229710 -0.014950 0.627000
0.232582 -0.014950 0.627000
0.235453 -0.014950 0.627000
0.236889 -0.014950 0.627000
0.239761 -0.014950 0.627000
0.242633 -0.014950 0.627000
0.245505 -0.014950 0.627000
0.053629 -0.010158 0.426000
0.055581 -0.010158 0.426000
0.056556 -0.010158 0.426000
0.058370 -0.010134 0.425000
0.060175 -0.010110 0.424000
0.062117 -0.010110 0.424000
0.062939 -0.010086 0.423000
0.064877 -0.010086 0.423000
0.066656 -0.010062 0.422000
0.068589 -0.010062 0.422000
0.070355 -0.010038 0.421000
0.071319 -0.010038 0.421000
0.073248 -0.010038 0.421000
0.075176 -0.010038 0.421000
0.077105 -0.010038 0.421000
0.078069 -0.010038 0.421000
0.079997 -0.010038 0.421000
0.078812 -0.009657 0.405000
0.080866 -0.009681 0.406000
0.081796 -0.009681 0.406000
0.083656 -0.009681 0.406000
0.085515 -0.009681 0.406000
0.087590 -0.009705 0.407000
0.088522 -0.009705 0.407000
0.090609 -0.009728 0.408000
0.146422 -0.015403 0.646000
0.149381 -0.015403 0.646000
0.152340 -0.015403 0.646000
0.153820 -0.015403 0.646000
0.157507 -0.015475 0.649000
0.160480 -0.015475 0.649000
0.163452 -0.015475 0.649000
0.164939 -0.015475 0.649000
0.167911 -0.015475 0.649000
0.170621 -0.015451 0.648000
0.173053 -0.015403 0.646000
0.174262 -0.015380 0.645000
0.177217 -0.015380 0.645000
0.179612 -0.015332 0.643000
0.182274 -0.015308 0.642000
0.185214 -0.015308 0.642000
0.186685 -0.015308 0.642000
0.189625 -0.015308 0.642000
0.192566 -0.015308 0.642000
0.195507 -0.015308 0.642000
0.196977 -0.015308 0.642000
0.199606 -0.015284 0.641000
0.201910 -0.015236 0.639000
0.204196 -0.015189 0.637000
0.205332 -0.015165 0.636000
0.207590 -0.015117 0.634000
0.209830 -0.015070 0.632000
0.212052 -0.015022 0.630000
0.213156 -0.014998 0.629000
0.215350 -0.014950 0.627000
0.218222 -0.014950 0.627000
0.221094 -0.014950 0.627000
0.223966 -0.014950 0.627000
0.225402 -0.014950 0.627000
0.228274 -0.014950 0.627000
0.231146 -0.014950 0.627000
0.234018 -0.014950 0.627000
0.235453 -0.014950 0.627000
0.238325 -0.014950 0.627000
0.241197 -0.014950 0.627000
0.244069 -0.014950 0.627000
0.245505 -0.014950 0.627000
0.054605 -0.009182 0.426000
0.056556 -0.009182 0.426000
0.057532 -0.009182 0.426000
0.059344 -0.009160 0.425000
0.061290 -0.009160 0.425000
0.063088 -0.009139 0.424000
0.064059 -0.009139 0.424000
0.066001 -0.009139 0.424000
0.067783 -0.009117 0.423000
0.069556 -0.009096 0.422000
0.070522 -0.009096 0.422000
0.072455 -0.009096 0.422000
0.074388 -0.009096 0.422000
0.076321 -0.009096 0.422000
0.073258 -0.008622 0.400000
0.075091 -0.008622 0.400000
0.077307 -0.008665 0.402000
0.079346 -0.008686 0.403000
0.081192 -0.008686 0.403000
0.082114 -0.008686 0.403000
0.084169 -0.008708 0.404000
0.086232 -0.008729 0.405000
0.088087 -0.008729 0.405000
0.089235 -0.008751 0.406000
0.091319 -0.008773 0.407000
0.092954 -0.008751 0.406000
0.094813 -0.008751 0.406000
0.095743 -0.008751 0.406000
0.155059 -0.013902 0.645000
0.158258 -0.013924 0.646000
0.161217 -0.013924 0.646000
0.164176 -0.013924 0.646000
0.165656 -0.013924 0.646000
0.168354 -0.013902 0.645000
0.171308 -0.013902 0.645000
0.173722 -0.013859 0.643000
0.175195 -0.013859 0.643000
0.177863 -0.013838 0.642000
0.180522 -0.013816 0.641000
0.183172 -0.013795 0.640000
0.184349 -0.013773 0.639000
0.187276 -0.013773 0.639000
0.190203 -0.013773 0.639000
0.193130 -0.013773 0.639000
0.194593 -0.013773 0.639000
0.197520 -0.013773 0.639000
0.199819 -0.013730 0.637000
0.202101 -0.013687 0.635000
0.204363 -0.013644 0.633000
0.205488 -0.013622 0.632000
0.207723 -0.013579 0.630000
0.209940 -0.013536 0.628000
0.212139 -0.013493 0.626000
0.213573 -0.013493 0.626000
0.216094 -0.013471 0.625000
0.218957 -0.013471 0.625000
0.221820 -0.013471 0.625000
0.223251 -0.013471 0.625000
0.226114 -0.013471 0.625000
0.228977 -0.013471 0.625000
0.231840 -0.013471 0.625000
0.234702 -0.013471 0.625000
0.236134 -0.013471 0.625000
0.238997 -0.013471 0.625000
0.241859 -0.013471 0.625000
0.244722 -0.013471 0.625000
0.053629 -0.009182 0.426000
0.055581 -0.009182 0.426000
0.056556 -0.009182 0.426000
0.058370 -0.009160 0.425000
0.060317 -0.009160 0.425000
0.062264 -0.009160 0.425000
0.063088 -0.009139 0.424000
0.065030 -0.009139 0.424000
0.066814 -0.009117 0.423000
0.068752 -0.009117 0.423000
0.070522 -0.009096 0.422000
0.071489 -0.009096 0.422000
0.073422 -0.009096 0.422000
0.075355 -0.009096 0.422000
0.073258 -0.008622 0.400000
0.074175 -0.008622 0.400000
0.076007 -0.008622 0.400000
0.078228 -0.008665 0.402000
0.080269 -0.008686 0.403000
0.081192 -0.008686 0.403000
0.083037 -0.008686 0.403000
0.085094 -0.008708 0.404000
0.087160 -0.008729 0.405000
0.088087 -0.008729 0.405000
0.090386 -0.008773 0.407000
0.092024 -0.008751 0.406000
0.093884 -0.008751 0.406000
0.095743 -0.008751 0.406000
0.096673 -0.008751 0.406000
0.156779 -0.013924 0.646000
0.159738 -0.013924 0.646000
0.162697 -0.013924 0.646000
0.164176 -0.013924 0.646000
0.167135 -0.013924 0.646000
0.169831 -0.013902 0.645000
0.172517 -0.013881 0.644000
0.173722 -0.013859 0.643000
0.176667 -0.013859 0.643000
0.179054 -0.013816 0.641000
0.181706 -0.013795 0.640000
0.184349 -0.013773 0.639000
0.185812 -0.013773 0.639000
0.188739 -0.013773 0.639000
0.191666 -0.013773 0.639000
0.194593 -0.013773 0.639000
0.196056 -0.013773 0.639000
0.198672 -0.013751 0.638000
0.200962 -0.013708 0.636000
0.203234 -0.013665 0.634000
0.204363 -0.013644 0.633000
0.206608 -0.013601 0.631000
0.208834 -0.013558 0.629000
0.211042 -0.013514 0.627000
0.212139 -0.013493 0.626000
0.214663 -0.013471 0.625000
0.217526 -0.013471 0.625000
0.220389 -0.013471 0.625000
0.223251 -0.013471 0.625000
0.224683 -0.013471 0.625000
0.227546 -0.013471 0.625000
0.230408 -0.013471 0.625000
0.233271 -0.013471 0.625000
0.234702 -0.013471 0.625000
0.237565 -0.013471 0.625000
0.240428 -0.013471 0.625000
0.243291 -0.013471 0.625000
0.244722 -0.013471 0.625000
0.054605 -0.008206 0.426000
0.056556 -0.008206 0.426000
0.057532 -0.008206 0.426000
0.059344 -0.008187 0.425000
0.061290 -0.008187 0.425000
0.063088 -0.008168 0.424000
0.064059 -0.008168 0.424000
0.066001 -0.008168 0.424000
0.067783 -0.008149 0.423000
0.069556 -0.008129 0.422000
0.070522 -0.008129 0.422000
0.072455 -0.008129 0.422000
0.074388 -0.008129 0.422000
0.071981 -0.007667 0.398000
0.073075 -0.007686 0.399000
0.074903 -0.007686 0.399000
0.076923 -0.007706 0.400000
0.078952 -0.007725 0.401000
0.080789 -0.007725 0.401000
0.081707 -0.007725 0.401000
0.083752 -0.007744 0.402000
0.085806 -0.007763 0.403000
0.087870 -0.007783 0.404000
0.089015 -0.007802 0.405000
0.091094 -0.007821 0.406000
0.092954 -0.007821 0.406000
0.094813 -0.007821 0.406000
0.095743 -0.007821 0.406000
0.097363 -0.007802 0.405000
0.157523 -0.012387 0.643000
0.160469 -0.012387 0.643000
0.163414 -0.012387 0.643000
0.164886 -0.012387 0.643000
0.167571 -0.012367 0.642000
0.170511 -0.012367 0.642000
0.173182 -0.012348 0.641000
0.174650 -0.012348 0.641000
0.177309 -0.012329 0.640000
0.179959 -0.012310 0.639000
0.182599 -0.012290 0.638000
0.183772 -0.012271 0.637000
0.186690 -0.012271 0.637000
0.189310 -0.012252 0.636000
0.192223 -0.012252 0.636000
0.193679 -0.012252 0.636000
0.196593 -0.012252 0.636000
0.198878 -0.012213 0.634000
0.201146 -0.012175 0.632000
0.203395 -0.012136 0.630000
0.204513 -0.012117 0.629000
0.206734 -0.012078 0.627000
0.208938 -0.012040 0.625000
0.211461 -0.012021 0.624000
0.212891 -0.012021 0.624000
0.215403 -0.012001 0.623000
0.218257 -0.012001 0.623000
0.221110 -0.012001 0.623000
0.222537 -0.012001 0.623000
0.225391 -0.012001 0.623000
0.228244 -0.012001 0.623000
0.231098 -0.012001 0.623000
0.233951 -0.012001 0.623000
0.235378 -0.012001 0.623000
0.238232 -0.012001 0.623000
0.241085 -0.012001 0.623000
0.243939 -0.012001 0.623000
0.053629 -0.008206 0.426000
0.055581 -0.008206 0.426000
0.056556 -0.008206 0.426000
0.058370 -0.008187 0.425000
0.060317 -0.008187 0.425000
0.062264 -0.008187 0.425000
0.063088 -0.008168 0.424000
0.065030 -0.008168 0.424000
0.066814 -0.008149 0.423000
0.068752 -0.008149 0.423000
0.070522 -0.008129 0.422000
0.071489 -0.008129 0.422000
0.073422 -0.008129 0.422000
0.071069 -0.007667 0.398000
0.073075 -0.007686 0.399000
0.073989 -0.007686 0.399000
0.075817 -0.007686 0.399000
0.077839 -0.007706 0.400000
0.079870 -0.007725 0.401000
0.080789 -0.007725 0.401000
0.082625 -0.007725 0.401000
0.084673 -0.007744 0.402000
0.086729 -0.007763 0.403000
0.087870 -0.007783 0.404000
0.090164 -0.007821 0.406000
0.092024 -0.007821 0.406000
0.093884 -0.007821 0.406000
0.095743 -0.007821 0.406000
0.096673 -0.007821 0.406000
0.156051 -0.012387 0.643000
0.158996 -0.012387 0.643000
0.161941 -0.012387 0.643000
0.163414 -0.012387 0.643000
0.166359 -0.012387 0.643000
0.169041 -0.012367 0.642000
0.171981 -0.012367 0.642000
0.173182 -0.012348 0.641000
0.176118 -0.012348 0.641000
0.178495 -0.012310 0.639000
0.181138 -0.012290 0.638000
0.183772 -0.012271 0.637000
0.185231 -0.012271 0.637000
0.188148 -0.012271 0.637000
0.190766 -0.012252 0.636000
0.193679 -0.012252 0.636000
0.195136 -0.012252 0.636000
0.197738 -0.012233 0.635000
0.200014 -0.012194 0.633000
0.202273 -0.012155 0.631000
0.203395 -0.012136 0.630000
0.205626 -0.012098 0.628000
0.207838 -0.012059 0.626000
0.210032 -0.012021 0.624000
0.211461 -0.012021 0.624000
0.213976 -0.012001 0.623000
0.216830 -0.012001 0.623000
0.219683 -0.012001 0.623000
0.222537 -0.012001 0.623000
0.223964 -0.012001 0.623000
0.226817 -0.012001 0.623000
0.229671 -0.012001 0.623000
0.232525 -0.012001 0.623000
0.233951 -0.012001 0.623000
0.236805 -0.012001 0.623000
0.239659 -0.012001 0.623000
0.242512 -0.012001 0.623000
0.243939 -0.012001 0.623000
0.054605 -0.007231 0.426000
0.056556 -0.007231 0.426000
0.057532 -0.007231 0.426000
0.059344 -0.007214 0.425000
0.061290 -0.007214 0.425000
0.063237 -0.007214 0.425000
0.064210 -0.007214 0.425000
0.066157 -0.007214 0.425000
0.067943 -0.007197 0.424000
0.069721 -0.007180 0.423000
0.070689 -0.007180 0.423000
0.072627 -0.007180 0.423000
0.074565 -0.007180 0.423000
0.071981 -0.006756 0.398000
0.072892 -0.006756 0.398000
0.074715 -0.006756 0.398000
0.076730 -0.006772 0.399000
0.078755 -0.006789 0.400000
0.080587 -0.006789 0.400000
0.081503 -0.006789 0.400000
0.083335 -0.006789 0.400000
0.085380 -0.006806 0.401000
0.087652 -0.006840 0.403000
0.088795 -0.006857 0.404000
0.090870 -0.006874 0.405000
0.092725 -0.006874 0.405000
0.094813 -0.006891 0.406000
0.095743 -0.006891 0.406000
0.153376 -0.010829 0.638000
0.156788 -0.010863 0.640000
0.159720 -0.010863 0.640000
0.162651 -0.010863 0.640000
0.164117 -0.010863 0.640000
0.167049 -0.010863 0.640000
0.169980 -0.010863 0.640000
0.172641 -0.010846 0.639000
0.174105 -0.010846 0.639000
0.176755 -0.010829 0.638000
0.179395 -0.010812 0.637000
0.182027 -0.010795 0.636000
0.183195 -0.010778 0.635000
0.186103 -0.010778 0.635000
0.188714 -0.010761 0.634000
0.191618 -0.010761 0.634000
0.192766 -0.010744 0.633000
0.195665 -0.010744 0.633000
0.197937 -0.010710 0.631000
0.200191 -0.010676 0.629000
0.202426 -0.010642 0.627000
0.203537 -0.010625 0.626000
0.205745 -0.010592 0.624000
0.208269 -0.010575 0.623000
0.210784 -0.010558 0.622000
0.212208 -0.010558 0.622000
0.214711 -0.010541 0.621000
0.217206 -0.010524 0.620000
0.220045 -0.010524 0.620000
0.221465 -0.010524 0.620000
0.224305 -0.010524 0.620000
0.227145 -0.010524 0.620000
0.229985 -0.010524 0.620000
0.232825 -0.010524 0.620000
0.234245 -0.010524 0.620000
0.237085 -0.010524 0.620000
0.239924 -0.010524 0.620000
0.242764 -0.010524 0.620000
0.053629 -0.007231 0.426000
0.055581 -0.007231 0.426000
0.056556 -0.007231 0.426000
0.058370 -0.007214 0.425000
0.060317 -0.007214 0.425000
0.062264 -0.007214 0.425000
0.063237 -0.007214 0.425000
0.065184 -0.007214 0.425000
0.066972 -0.007197 0.424000
0.068752 -0.007180 0.423000
0.070689 -0.007180 0.423000
0.071658 -0.007180 0.423000
0.073596 -0.007180 0.423000
0.071069 -0.006756 0.398000
0.072892 -0.006756 0.398000
0.073804 -0.006756 0.398000
0.075627 -0.006756 0.398000
0.077644 -0.006772 0.399000
0.079671 -0.006789 0.400000
0.080587 -0.006789 0.400000
0.082419 -0.006789 0.400000
0.084462 -0.006806 0.401000
0.086514 -0.006823 0.402000
0.087652 -0.006840 0.403000
0.089942 -0.006874 0.405000
0.091797 -0.006874 0.405000
0.093884 -0.006891 0.406000
0.095743 -0.006891 0.406000
0.096673 -0.006891 0.406000
0.155323 -0.010863 0.640000
0.158254 -0.010863 0.640000
0.161186 -0.010863 0.640000
0.162651 -0.010863 0.640000
0.165583 -0.010863 0.640000
0.168514 -0.010863 0.640000
0.171446 -0.010863 0.640000
0.172641 -0.010846 0.639000
0.175568 -0.010846 0.639000
0.178216 -0.010829 0.638000
0.180570 -0.010795 0.636000
0.183195 -0.010778 0.635000
0.184649 -0.010778 0.635000
0.187558 -0.010778 0.635000
0.190166 -0.010761 0.634000
0.192766 -0.010744 0.633000
0.194216 -0.010744 0.633000
0.196804 -0.010727 0.632000
0.199066 -0.010693 0.630000
0.201311 -0.010659 0.628000
0.202426 -0.010642 0.627000
0.204643 -0.010609 0.625000
0.206842 -0.010575 0.623000
0.209359 -0.010558 0.622000
0.210784 -0.010558 0.622000
0.213289 -0.010541 0.621000
0.216134 -0.010541 0.621000
0.218626 -0.010524 0.620000
0.221465 -0.010524 0.620000
0.222885 -0.010524 0.620000
0.225725 -0.010524 0.620000
0.228565 -0.010524 0.620000
0.231405 -0.010524 0.620000
0.232825 -0.010524 0.620000
0.235665 -0.010524 0.620000
0.238505 -0.010524 0.620000
0.241344 -0.010524 0.620000
0.242764 -0.010524 0.620000
0.054605 -0.007231 0.426000
0.056556 -0.007231 0.426000
0.057532 -0.007231 0.426000
0.059344 -0.007214 0.425000
0.061290 -0.007214 0.425000
0.063237 -0.007214 0.425000
0.064210 -0.007214 0.425000
0.066157 -0.007214 0.425000
0.067943 -0.007197 0.424000
0.069721 -0.007180 0.423000
0.070689 -0.007180 0.423000
0.072627 -0.007180 0.423000
0.074565 -0.007180 0.423000
0.071981 -0.006756 0.398000
0.072892 -0.006756 0.398000
0.074715 -0.006756 0.398000
0.076730 -0.006772 0.399000
0.078755 -0.006789 0.400000
0.080587 -0.006789 0.400000
0.081503 -0.006789 0.400000
0.083335 -0.006789 0.400000
0.085380 -0.006806 0.401000
0.087652 -0.006840 0.403000
0.088795 -0.006857 0.404000
0.090870 -0.006874 0.405000
0.092725 -0.006874 0.405000
0.094813 -0.006891 0.406000
0.095743 -0.006891 0.406000
0.153376 -0.010829 0.638000
0.156788 -0.010863 0.640000
0.159720 -0.010863 0.640000
0.162651 -0.010863 0.640000
0.164117 -0.010863 0.640000
0.167049 -0.010863 0.640000
0.169980 -0.010863 0.640000
0.172641 -0.010846 0.639000
0.174105 -0.010846 0.639000
0.176755 -0.010829 0.638000
0.179395 -0.010812 0.637000
0.182027 -0.010795 0.636000
0.183195 -0.010778 0.635000
0.186103 -0.010778 0.635000
0.188714 -0.010761 0.634000
0.191618 -0.010761 0.634000
0.192766 -0.010744 0.633000
0.195665 -0.010744 0.633000
0.197937 -0.010710 0.631000
0.200191 -0.010676 0.629000
0.202426 -0.010642 0.627000
0.203537 -0.010625 0.626000
0.205745 -0.010592 0.624000
0.208269 -0.010575 0.623000
0.210784 -0.010558 0.622000
0.212208 -0.010558 0.622000
0.214711 -0.010541 0.621000
0.217206 -0.010524 0.620000
0.220045 -0.010524 0.620000
0.221465 -0.010524 0.620000
0.224305 -0.010524 0.620000
0.227145 -0.010524 0.620000
0.229985 -0.010524 0.620000
0.232825 -0.010524 0.620000
0.234245 -0.010524 0.620000
0.237085 -0.010524 0.620000
0.239924 -0.010524 0.620000
0.242764 -0.010524 0.620000
0.053629 -0.006255 0.426000
0.055581 -0.006255 0.426000
0.056556 -0.006255 0.426000
0.058370 -0.006240 0.425000
0.060317 -0.006240 0.425000
0.062264 -0.006240 0.425000
0.063237 -0.006240 0.425000
0.065184 -0.006240 0.425000
0.066972 -0.006226 0.424000
0.068914 -0.006226 0.424000
0.070857 -0.006226 0.424000
0.071828 -0.006226 0.424000
0.073770 -0.006226 0.424000
0.070891 -0.005829 0.397000
0.072709 -0.005829 0.397000
0.073618 -0.005829 0.397000
0.075437 -0.005829 0.397000
0.077450 -0.005844 0.398000
0.079472 -0.005859 0.399000
0.080386 -0.005859 0.399000
0.082213 -0.005859 0.399000
0.084251 -0.005873 0.400000
0.086299 -0.005888 0.401000
0.087435 -0.005903 0.402000
0.089720 -0.005932 0.404000
0.091571 -0.005932 0.404000
0.093652 -0.005947 0.405000
0.095507 -0.005947 0.405000
0.151677 -0.009353 0.637000
0.154837 -0.009368 0.638000
0.157760 -0.009368 0.638000
0.160682 -0.009368 0.638000
0.162143 -0.009368 0.638000
0.165065 -0.009368 0.638000
0.167988 -0.009368 0.638000
0.170910 -0.009368 0.638000
0.172101 -0.009353 0.637000
0.175019 -0.009353 0.637000
0.177657 -0.009339 0.636000
0.180002 -0.009309 0.634000
0.182618 -0.009295 0.633000
0.184068 -0.009295 0.633000
0.186967 -0.009295 0.633000
0.189566 -0.009280 0.632000
0.192157 -0.009265 0.631000
0.193602 -0.009265 0.631000
0.195869 -0.009236 0.629000
0.198434 -0.009221 0.628000
0.200670 -0.009192 0.626000
0.201781 -0.009177 0.625000
0.203989 -0.009148 0.623000
0.206178 -0.009118 0.621000
0.208686 -0.009104 0.620000
0.210106 -0.009104 0.620000
0.212602 -0.009089 0.619000
0.215438 -0.009089 0.619000
0.217920 -0.009074 0.618000
0.220751 -0.009074 0.618000
0.222166 -0.009074 0.618000
0.224997 -0.009074 0.618000
0.227828 -0.009074 0.618000
0.230658 -0.009074 0.618000
0.232074 -0.009074 0.618000
0.234904 -0.009074 0.618000
0.237735 -0.009074 0.618000
0.240566 -0.009074 0.618000
0.241981 -0.009074 0.618000
0.054605 -0.006255 0.426000
0.056556 -0.006255 0.426000
0.057532 -0.006255 0.426000
0.059344 -0.006240 0.425000
0.061290 -0.006240 0.425000
0.063237 -0.006240 0.425000
0.064210 -0.006240 0.425000
0.066157 -0.006240 0.425000
0.067943 -0.006226 0.424000
0.069886 -0.006226 0.424000
0.070857 -0.006226 0.424000
0.072799 -0.006226 0.424000
0.069629 -0.005800 0.395000
0.071800 -0.005829 0.397000
0.072709 -0.005829 0.397000
0.074527 -0.005829 0.397000
0.076538 -0.005844 0.398000
0.078558 -0.005859 0.399000
0.080386 -0.005859 0.399000
0.081299 -0.005859 0.399000
0.083127 -0.005859 0.399000
0.085168 -0.005873 0.400000
0.087435 -0.005903 0.402000
0.088575 -0.005917 0.403000
0.090645 -0.005932 0.404000
0.092496 -0.005932 0.404000
0.094580 -0.005947 0.405000
0.095507 -0.005947 0.405000
0.153136 -0.009353 0.637000
0.156298 -0.009368 0.638000
0.159221 -0.009368 0.638000
0.162143 -0.009368 0.638000
0.163604 -0.009368 0.638000
0.166526 -0.009368 0.638000
0.169449 -0.009368 0.638000
0.172101 -0.009353 0.637000
0.173560 -0.009353 0.637000
0.176200 -0.009339 0.636000
0.178832 -0.009324 0.635000
0.181454 -0.009309 0.634000
0.182618 -0.009295 0.633000
0.185517 -0.009295 0.633000
0.188119 -0.009280 0.632000
0.191014 -0.009280 0.632000
0.192157 -0.009265 0.631000
0.194738 -0.009251 0.630000
0.197310 -0.009236 0.629000
0.199554 -0.009207 0.627000
0.201781 -0.009177 0.625000
0.202887 -0.009162 0.624000
0.205086 -0.009133 0.622000
0.207600 -0.009118 0.621000
0.210106 -0.009104 0.620000
0.211526 -0.009104 0.620000
0.214020 -0.009089 0.619000
0.216505 -0.009074 0.618000
0.219336 -0.009074 0.618000
0.220751 -0.009074 0.618000
0.223582 -0.009074 0.618000
0.226412 -0.009074 0.618000
0.229243 -0.009074 0.618000
0.232074 -0.009074 0.618000
0.233489 -0.009074 0.618000
0.236320 -0.009074 0.618000
0.239151 -0.009074 0.618000
0.241981 -0.009074 0.618000
0.053881 -0.005304 0.428000
0.055842 -0.005304 0.428000
0.056822 -0.005304 0.428000
0.058782 -0.005304 0.428000
0.060743 -0.005304 0.428000
0.062703 -0.005304 0.428000
0.063683 -0.005304 0.428000
0.065644 -0.005304 0.428000
0.067604 -0.005304 0.428000
0.069565 -0.005304 0.428000
0.071525 -0.005304 0.428000
0.072505 -0.005304 0.428000
0.068724 -0.004895 0.395000
0.070712 -0.004908 0.396000
0.072526 -0.004908 0.396000
0.073433 -0.004908 0.396000
0.075247 -0.004908 0.396000
0.077255 -0.004920 0.397000
0.079273 -0.004932 0.398000
0.080184 -0.004932 0.398000
0.082007 -0.004932 0.398000
0.084041 -0.004945 0.399000
0.086084 -0.004957 0.400000
0.087217 -0.004970 0.401000
0.089498 -0.004994 0.403000
0.091344 -0.004994 0.403000
0.093421 -0.005007 0.404000
0.095272 -0.005007 0.404000
0.095244 -0.004957 0.400000
0.154352 -0.007882 0.636000
0.157265 -0.007882 0.636000
0.160178 -0.007882 0.636000
0.161635 -0.007882 0.636000
0.164548 -0.007882 0.636000
0.167461 -0.007882 0.636000
0.170374 -0.007882 0.636000
0.171561 -0.007870 0.635000
0.174469 -0.007870 0.635000
0.177098 -0.007857 0.634000
0.179435 -0.007833 0.632000
0.182041 -0.007820 0.631000
0.183486 -0.007820 0.631000
0.186376 -0.007820 0.631000
0.188967 -0.007808 0.630000
0.191548 -0.007795 0.629000
0.192681 -0.007783 0.628000
0.195247 -0.007771 0.627000
0.197802 -0.007758 0.626000
0.200029 -0.007733 0.624000
0.201135 -0.007721 0.623000
0.203334 -0.007696 0.621000
0.205514 -0.007671 0.619000
0.208013 -0.007659 0.618000
0.209428 -0.007659 0.618000
0.211915 -0.007647 0.617000
0.214742 -0.007647 0.617000
0.216862 -0.007622 0.615000
0.219679 -0.007622 0.615000
0.221088 -0.007622 0.615000
0.223905 -0.007622 0.615000
0.226722 -0.007622 0.615000
0.229539 -0.007622 0.615000
0.230947 -0.007622 0.615000
0.233764 -0.007622 0.615000
0.236581 -0.007622 0.615000
0.239398 -0.007622 0.615000
0.240807 -0.007622 0.615000
0.054861 -0.005304 0.428000
0.056822 -0.005304 0.428000
0.057802 -0.005304 0.428000
0.059763 -0.005304 0.428000
0.061723 -0.005304 0.428000
0.063683 -0.005304 0.428000
0.064664 -0.005304 0.428000
0.066624 -0.005304 0.428000
0.068584 -0.005304 0.428000
0.070545 -0.005304 0.428000
0.071525 -0.005304 0.428000
0.073485 -0.005304 0.428000
0.069629 -0.004895 0.395000
0.071619 -0.004908 0.396000
0.072526 -0.004908 0.396000
0.074340 -0.004908 0.396000
0.076346 -0.004920 0.397000
0.078361 -0.004932 0.398000
0.080184 -0.004932 0.398000
0.081096 -0.004932 0.398000
0.082919 -0.004932 0.398000
0.084955 -0.004945 0.399000
0.087217 -0.004970 0.401000
0.088355 -0.004982 0.402000
0.090421 -0.004994 0.403000
0.092267 -0.004994 0.403000
0.094346 -0.005007 0.404000
0.095272 -0.005007 0.404000
0.152895 -0.007882 0.636000
0.155808 -0.007882 0.636000
0.158722 -0.007882 0.636000
0.161635 -0.007882 0.636000
0.163091 -0.007882 0.636000
0.166004 -0.007882 0.636000
0.168918 -0.007882 0.636000
0.171561 -0.007870 0.635000
0.173015 -0.007870 0.635000
0.175646 -0.007857 0.634000
0.178269 -0.007845 0.633000
0.180882 -0.007833 0.632000
0.182041 -0.007820 0.631000
0.184931 -0.007820 0.631000
0.187524 -0.007808 0.630000
0.190107 -0.007795 0.629000
0.191548 -0.007795 0.629000
0.194120 -0.007783 0.628000
0.196682 -0.007771 0.627000
0.198918 -0.007746 0.625000
0.201135 -0.007721 0.623000
