ply
format ascii 1.0
element vertex 1711
property float x
property float y
property float z
end_header
0.174803 -0.016909 0.647000
0.176012 -0.016883 0.646000
0.178971 -0.016883 0.646000
0.181930 -0.016883 0.646000
0.184889 -0.016883 0.646000
0.186368 -0.016883 0.646000
0.189034 -0.016857 0.645000
0.191989 -0.016857 0.645000
0.194943 -0.016857 0.645000
0.196116 -0.016831 0.644000
0.198447 -0.016778 0.642000
0.201074 -0.016752 0.641000
0.203374 -0.016700 0.639000
0.205655 -0.016648 0.637000
0.206789 -0.016622 0.636000
0.209042 -0.016569 0.634000
0.211278 -0.016517 0.632000
0.213834 -0.016491 0.631000
0.215279 -0.016491 0.631000
0.217823 -0.016465 0.630000
0.220359 -0.016439 0.629000
0.222530 -0.016386 0.627000
0.223966 -0.016386 0.627000
0.226476 -0.016360 0.626000
0.229343 -0.016360 0.626000
0.232211 -0.016360 0.626000
0.235078 -0.016360 0.626000
0.236512 -0.016360 0.626000
0.239379 -0.016360 0.626000
0.242633 -0.016386 0.627000
0.246288 -0.016439 0.629000
0.054137 -0.011447 0.438000
0.056271 -0.011473 0.439000
0.058282 -0.011473 0.439000
0.060293 -0.011473 0.439000
0.061298 -0.011473 0.439000
0.063309 -0.011473 0.439000
0.065320 -0.011473 0.439000
0.067331 -0.011473 0.439000
0.069342 -0.011473 0.439000
0.070347 -0.011473 0.439000
0.072358 -0.011473 0.439000
0.074538 -0.011499 0.440000
0.076553 -0.011499 0.440000
0.077561 -0.011499 0.440000
0.079577 -0.011499 0.440000
0.081592 -0.011499 0.440000
0.076957 -0.010584 0.405000
0.077884 -0.010584 0.405000
0.079739 -0.010584 0.405000
0.081594 -0.010584 0.405000
0.083656 -0.010611 0.406000
0.085515 -0.010611 0.406000
0.086445 -0.010611 0.406000
0.088305 -0.010611 0.406000
0.090386 -0.010637 0.407000
0.092477 -0.010663 0.408000
0.093412 -0.010663 0.408000
0.095281 -0.010663 0.408000
0.097149 -0.010663 0.408000
0.157264 -0.016935 0.648000
0.158503 -0.016909 0.647000
0.161716 -0.016935 0.648000
0.164684 -0.016935 0.648000
0.167653 -0.016935 0.648000
0.169137 -0.016935 0.648000
0.172105 -0.016935 0.648000
0.174803 -0.016909 0.647000
0.177491 -0.016883 0.646000
0.180450 -0.016883 0.646000
0.181930 -0.016883 0.646000
0.184889 -0.016883 0.646000
0.187557 -0.016857 0.645000
0.190511 -0.016857 0.645000
0.191989 -0.016857 0.645000
0.194943 -0.016857 0.645000
0.197284 -0.016804 0.643000
0.199606 -0.016752 0.641000
0.201074 -0.016752 0.641000
0.203374 -0.016700 0.639000
0.205655 -0.016648 0.637000
0.207918 -0.016595 0.635000
0.210162 -0.016543 0.633000
0.211278 -0.016517 0.632000
0.213834 -0.016491 0.631000
0.216724 -0.016491 0.631000
0.218918 -0.016439 0.629000
0.220359 -0.016439 0.629000
0.222530 -0.016386 0.627000
0.225402 -0.016386 0.627000
0.227910 -0.016360 0.626000
0.229343 -0.016360 0.626000
0.232211 -0.016360 0.626000
0.235078 -0.016360 0.626000
0.237945 -0.016360 0.626000
0.239379 -0.016360 0.626000
0.242633 -0.016386 0.627000
0.246288 -0.016439 0.629000
0.055140 -0.010444 0.438000
0.057277 -0.010468 0.439000
0.058282 -0.010468 0.439000
0.060293 -0.010468 0.439000
0.062304 -0.010468 0.439000
0.064315 -0.010468 0.439000
0.065320 -0.010468 0.439000
0.067331 -0.010468 0.439000
0.069342 -0.010468 0.439000
0.071352 -0.010468 0.439000
0.073363 -0.010468 0.439000
0.074538 -0.010491 0.440000
0.076553 -0.010491 0.440000
0.078569 -0.010491 0.440000
0.080584 -0.010491 0.440000
0.081592 -0.010491 0.440000
0.076577 -0.009609 0.403000
0.078423 -0.009609 0.403000
0.080269 -0.009609 0.403000
0.081192 -0.009609 0.403000
0.083243 -0.009633 0.404000
0.085094 -0.009633 0.404000
0.087160 -0.009657 0.405000
0.088087 -0.009657 0.405000
0.090164 -0.009681 0.406000
0.092251 -0.009705 0.407000
0.094115 -0.009705 0.407000
0.095979 -0.009705 0.407000
0.096911 -0.009705 0.407000
0.156536 -0.015380 0.645000
0.159490 -0.015380 0.645000
0.162445 -0.015380 0.645000
0.163922 -0.015380 0.645000
0.166876 -0.015380 0.645000
0.169831 -0.015380 0.645000
0.172517 -0.015356 0.644000
0.173992 -0.015356 0.644000
0.176667 -0.015332 0.643000
0.179612 -0.015332 0.643000
0.182558 -0.015332 0.643000
0.185503 -0.015332 0.643000
0.186685 -0.015308 0.642000
0.189625 -0.015308 0.642000
0.192566 -0.015308 0.642000
0.195202 -0.015284 0.641000
0.196363 -0.015260 0.640000
0.198672 -0.015213 0.638000
0.201278 -0.015189 0.637000
0.203555 -0.015141 0.635000
0.204686 -0.015117 0.634000
0.206935 -0.015070 0.632000
0.209498 -0.015046 0.631000
0.212052 -0.015022 0.630000
0.213156 -0.014998 0.629000
0.216037 -0.014998 0.629000
0.218222 -0.014950 0.627000
0.220741 -0.014927 0.626000
0.223251 -0.014903 0.625000
0.224683 -0.014903 0.625000
0.227181 -0.014879 0.624000
0.230040 -0.014879 0.624000
0.232898 -0.014879 0.624000
0.234327 -0.014879 0.624000
0.237185 -0.014879 0.624000
0.240043 -0.014879 0.624000
0.243291 -0.014903 0.625000
0.245114 -0.014927 0.626000
0.055140 -0.010444 0.438000
0.057277 -0.010468 0.439000
0.059288 -0.010468 0.439000
0.061298 -0.010468 0.439000
0.062304 -0.010468 0.439000
0.064315 -0.010468 0.439000
0.066325 -0.010468 0.439000
0.068336 -0.010468 0.439000
0.069342 -0.010468 0.439000
0.071352 -0.010468 0.439000
0.073363 -0.010468 0.439000
0.075546 -0.010491 0.440000
0.076553 -0.010491 0.440000
0.078569 -0.010491 0.440000
0.080584 -0.010491 0.440000
0.075654 -0.009609 0.403000
0.077500 -0.009609 0.403000
0.078423 -0.009609 0.403000
0.080269 -0.009609 0.403000
0.082318 -0.009633 0.404000
0.084169 -0.009633 0.404000
0.085094 -0.009633 0.404000
0.087160 -0.009657 0.405000
0.089235 -0.009681 0.406000
0.091319 -0.009705 0.407000
0.092251 -0.009705 0.407000
0.094115 -0.009705 0.407000
0.095979 -0.009705 0.407000
0.154818 -0.015356 0.644000
0.157768 -0.015356 0.644000
0.159490 -0.015380 0.645000
0.162445 -0.015380 0.645000
0.165399 -0.015380 0.645000
0.168354 -0.015380 0.645000
0.169831 -0.015380 0.645000
0.172517 -0.015356 0.644000
0.175195 -0.015332 0.643000
0.178140 -0.015332 0.643000
0.179612 -0.015332 0.643000
0.182558 -0.015332 0.643000
0.185503 -0.015332 0.643000
0.188155 -0.015308 0.642000
0.189625 -0.015308 0.642000
0.192566 -0.015308 0.642000
0.195202 -0.015284 0.641000
0.197520 -0.015236 0.639000
0.200133 -0.015213 0.638000
0.201278 -0.015189 0.637000
0.203555 -0.015141 0.635000
0.205813 -0.015093 0.633000
0.208053 -0.015046 0.631000
0.209498 -0.015046 0.631000
0.212052 -0.015022 0.630000
0.214596 -0.014998 0.629000
0.217132 -0.014974 0.628000
0.218222 -0.014950 0.627000
0.220741 -0.014927 0.626000
0.223251 -0.014903 0.625000
0.225752 -0.014879 0.624000
0.228611 -0.014879 0.624000
0.230040 -0.014879 0.624000
0.232898 -0.014879 0.624000
0.235756 -0.014879 0.624000
0.238614 -0.014879 0.624000
0.240043 -0.014879 0.624000
0.243291 -0.014903 0.625000
0.054137 -0.009441 0.438000
0.056271 -0.009462 0.439000
0.058282 -0.009462 0.439000
0.059288 -0.009462 0.439000
0.061298 -0.009462 0.439000
0.063309 -0.009462 0.439000
0.065320 -0.009462 0.439000
0.066325 -0.009462 0.439000
0.068336 -0.009462 0.439000
0.070347 -0.009462 0.439000
0.072358 -0.009462 0.439000
0.073363 -0.009462 0.439000
0.075546 -0.009484 0.440000
0.077561 -0.009484 0.440000
0.079577 -0.009484 0.440000
0.073075 -0.008600 0.399000
0.075278 -0.008643 0.401000
0.077115 -0.008643 0.401000
0.078952 -0.008643 0.401000
0.080789 -0.008643 0.401000
0.081911 -0.008665 0.402000
0.083752 -0.008665 0.402000
0.085806 -0.008686 0.403000
0.087870 -0.008708 0.404000
0.089015 -0.008729 0.405000
0.091094 -0.008751 0.406000
0.092954 -0.008751 0.406000
0.094813 -0.008751 0.406000
0.095743 -0.008751 0.406000
0.154578 -0.013859 0.643000
0.157033 -0.013816 0.641000
0.160219 -0.013838 0.642000
0.163160 -0.013838 0.642000
0.164630 -0.013838 0.642000
0.167571 -0.013838 0.642000
0.170511 -0.013838 0.642000
0.173182 -0.013816 0.641000
0.174377 -0.013795 0.640000
0.177309 -0.013795 0.640000
0.180240 -0.013795 0.640000
0.183172 -0.013795 0.640000
0.184637 -0.013795 0.640000
0.187276 -0.013773 0.639000
0.190203 -0.013773 0.639000
0.193130 -0.013773 0.639000
0.194288 -0.013751 0.638000
0.196593 -0.013708 0.636000
0.199192 -0.013687 0.635000
0.201464 -0.013644 0.633000
0.203718 -0.013601 0.631000
0.204838 -0.013579 0.630000
0.207394 -0.013558 0.629000
0.209940 -0.013536 0.628000
0.212478 -0.013514 0.627000
0.213914 -0.013514 0.627000
0.216440 -0.013493 0.626000
0.218957 -0.013471 0.625000
0.221110 -0.013428 0.623000
0.222537 -0.013428 0.623000
0.225029 -0.013407 0.622000
0.227878 -0.013407 0.622000
0.230727 -0.013407 0.622000
0.233576 -0.013407 0.622000
0.235000 -0.013407 0.622000
0.237849 -0.013407 0.622000
0.240698 -0.013407 0.622000
0.243939 -0.013428 0.623000
0.054137 -0.009441 0.438000
0.056271 -0.009462 0.439000
0.058282 -0.009462 0.439000
0.060293 -0.009462 0.439000
0.061298 -0.009462 0.439000
0.063309 -0.009462 0.439000
0.065320 -0.009462 0.439000
0.067331 -0.009462 0.439000
0.069342 -0.009462 0.439000
0.070347 -0.009462 0.439000
0.072358 -0.009462 0.439000
0.074538 -0.009484 0.440000
0.076553 -0.009484 0.440000
0.077561 -0.009484 0.440000
0.079577 -0.009484 0.440000
0.073989 -0.008600 0.399000
0.076197 -0.008643 0.401000
0.077115 -0.008643 0.401000
0.078952 -0.008643 0.401000
0.080789 -0.008643 0.401000
0.082831 -0.008665 0.402000
0.084673 -0.008665 0.402000
0.085806 -0.008686 0.403000
0.087870 -0.008708 0.404000
0.089942 -0.008729 0.405000
0.092024 -0.008751 0.406000
0.092954 -0.008751 0.406000
0.094813 -0.008751 0.406000
0.096673 -0.008751 0.406000
0.155808 -0.013838 0.642000
0.157033 -0.013816 0.641000
0.160219 -0.013838 0.642000
0.163160 -0.013838 0.642000
0.166100 -0.013838 0.642000
0.167571 -0.013838 0.642000
0.170511 -0.013838 0.642000
0.173182 -0.013816 0.641000
0.175843 -0.013795 0.640000
0.178774 -0.013795 0.640000
0.180240 -0.013795 0.640000
0.183172 -0.013795 0.640000
0.185812 -0.013773 0.639000
0.188739 -0.013773 0.639000
0.190203 -0.013773 0.639000
0.193130 -0.013773 0.639000
0.195443 -0.013730 0.637000
0.197738 -0.013687 0.635000
0.199192 -0.013687 0.635000
0.201464 -0.013644 0.633000
0.203718 -0.013601 0.631000
0.205953 -0.013558 0.629000
0.208834 -0.013558 0.629000
0.209940 -0.013536 0.628000
0.212478 -0.013514 0.627000
0.215350 -0.013514 0.627000
0.217874 -0.013493 0.626000
0.218957 -0.013471 0.625000
0.221110 -0.013428 0.623000
0.223964 -0.013428 0.623000
0.226453 -0.013407 0.622000
0.227878 -0.013407 0.622000
0.230727 -0.013407 0.622000
0.233576 -0.013407 0.622000
0.236425 -0.013407 0.622000
0.237849 -0.013407 0.622000
0.240698 -0.013407 0.622000
0.243939 -0.013428 0.623000
0.054762 -0.008380 0.435000
0.056624 -0.008361 0.434000
0.058282 -0.008457 0.439000
0.060293 -0.008457 0.439000
0.062304 -0.008457 0.439000
0.064315 -0.008457 0.439000
0.065320 -0.008457 0.439000
0.067331 -0.008457 0.439000
0.069342 -0.008457 0.439000
0.071352 -0.008457 0.439000
0.073363 -0.008457 0.439000
0.074538 -0.008476 0.440000
0.068898 -0.007628 0.396000
0.070712 -0.007628 0.396000
0.072892 -0.007667 0.398000
0.073804 -0.007667 0.398000
0.075817 -0.007686 0.399000
0.077644 -0.007686 0.399000
0.079671 -0.007706 0.400000
0.080587 -0.007706 0.400000
0.082625 -0.007725 0.401000
0.084462 -0.007725 0.401000
0.086729 -0.007763 0.403000
0.087652 -0.007763 0.403000
0.089720 -0.007783 0.404000
0.092024 -0.007821 0.406000
0.093884 -0.007821 0.406000
0.095743 -0.007821 0.406000
0.096673 -0.007821 0.406000
0.155323 -0.012329 0.640000
0.158007 -0.012310 0.639000
0.160934 -0.012310 0.639000
0.162397 -0.012310 0.639000
0.165324 -0.012310 0.639000
0.168251 -0.012310 0.639000
0.170910 -0.012290 0.638000
0.172371 -0.012290 0.638000
0.175293 -0.012290 0.638000
0.178216 -0.012290 0.638000
0.181138 -0.012290 0.638000
0.184060 -0.012290 0.638000
0.185231 -0.012271 0.637000
0.187853 -0.012252 0.636000
0.190766 -0.012252 0.636000
0.193375 -0.012233 0.635000
0.194522 -0.012213 0.634000
0.196804 -0.012175 0.632000
0.199382 -0.012155 0.631000
0.201632 -0.012117 0.629000
0.203072 -0.012117 0.629000
0.205298 -0.012078 0.627000
0.208170 -0.012078 0.627000
0.210706 -0.012059 0.626000
0.212139 -0.012059 0.626000
0.214663 -0.012040 0.625000
0.217178 -0.012021 0.624000
0.219331 -0.011982 0.622000
0.221823 -0.011963 0.621000
0.223245 -0.011963 0.621000
0.225725 -0.011944 0.620000
0.228565 -0.011944 0.620000
0.231405 -0.011944 0.620000
0.232825 -0.011944 0.620000
0.235665 -0.011944 0.620000
0.238505 -0.011944 0.620000
0.241734 -0.011963 0.621000
0.243156 -0.011963 0.621000
0.055631 -0.008361 0.434000
0.058282 -0.008457 0.439000
0.059288 -0.008457 0.439000
0.061298 -0.008457 0.439000
0.063309 -0.008457 0.439000
0.065320 -0.008457 0.439000
0.066325 -0.008457 0.439000
0.068336 -0.008457 0.439000
0.070347 -0.008457 0.439000
0.072358 -0.008457 0.439000
0.073363 -0.008457 0.439000
0.075546 -0.008476 0.440000
0.069805 -0.007628 0.396000
0.071619 -0.007628 0.396000
0.072892 -0.007667 0.398000
0.074903 -0.007686 0.399000
0.076730 -0.007686 0.399000
0.078558 -0.007686 0.399000
0.080587 -0.007706 0.400000
0.081707 -0.007725 0.401000
0.083544 -0.007725 0.401000
0.085593 -0.007744 0.402000
0.087652 -0.007763 0.403000
0.088795 -0.007783 0.404000
0.090870 -0.007802 0.405000
0.092954 -0.007821 0.406000
0.094813 -0.007821 0.406000
0.095743 -0.007821 0.406000
0.097363 -0.007802 0.405000
0.156298 -0.012290 0.638000
0.159470 -0.012310 0.639000
0.162397 -0.012310 0.639000
0.163861 -0.012310 0.639000
0.166788 -0.012310 0.639000
0.169714 -0.012310 0.639000
0.172371 -0.012290 0.638000
0.173832 -0.012290 0.638000
0.176755 -0.012290 0.638000
0.179677 -0.012290 0.638000
0.182599 -0.012290 0.638000
0.184060 -0.012290 0.638000
0.186690 -0.012271 0.637000
0.189310 -0.012252 0.636000
0.192223 -0.012252 0.636000
0.193375 -0.012233 0.635000
0.195665 -0.012194 0.633000
0.198251 -0.012175 0.632000
0.200509 -0.012136 0.630000
0.203072 -0.012117 0.629000
0.204187 -0.012098 0.628000
0.206734 -0.012078 0.627000
0.209272 -0.012059 0.626000
0.212139 -0.012059 0.626000
0.213232 -0.012040 0.625000
0.215749 -0.012021 0.624000
0.218257 -0.012001 0.623000
0.220400 -0.011963 0.621000
0.221823 -0.011963 0.621000
0.224305 -0.011944 0.620000
0.227145 -0.011944 0.620000
0.229985 -0.011944 0.620000
0.232825 -0.011944 0.620000
0.234245 -0.011944 0.620000
0.237085 -0.011944 0.620000
0.239924 -0.011944 0.620000
0.243156 -0.011963 0.621000
0.054762 -0.007384 0.435000
0.056755 -0.007384 0.435000
0.058282 -0.007451 0.439000
0.060293 -0.007451 0.439000
0.062304 -0.007451 0.439000
0.064315 -0.007451 0.439000
0.065320 -0.007451 0.439000
0.067331 -0.007451 0.439000
0.069342 -0.007451 0.439000
0.071352 -0.007451 0.439000
0.073363 -0.007451 0.439000
0.074538 -0.007468 0.440000
0.076553 -0.007468 0.440000
0.070712 -0.006722 0.396000
0.072709 -0.006739 0.397000
0.073618 -0.006739 0.397000
0.075627 -0.006756 0.398000
0.077450 -0.006756 0.398000
0.079472 -0.006772 0.399000
0.080386 -0.006772 0.399000
0.082419 -0.006789 0.400000
0.084251 -0.006789 0.400000
0.086514 -0.006823 0.402000
0.087435 -0.006823 0.402000
0.089498 -0.006840 0.403000
0.091797 -0.006874 0.405000
0.093884 -0.006891 0.406000
0.095743 -0.006891 0.406000
0.096673 -0.006891 0.406000
0.155080 -0.010846 0.639000
0.157265 -0.010795 0.636000
0.160178 -0.010795 0.636000
0.161635 -0.010795 0.636000
0.164548 -0.010795 0.636000
0.167461 -0.010795 0.636000
0.170374 -0.010795 0.636000
0.171831 -0.010795 0.636000
0.174744 -0.010795 0.636000
0.177657 -0.010795 0.636000
0.180570 -0.010795 0.636000
0.183483 -0.010795 0.636000
0.184649 -0.010778 0.635000
0.187262 -0.010761 0.634000
0.189866 -0.010744 0.633000
0.192461 -0.010727 0.632000
0.193602 -0.010710 0.631000
0.195869 -0.010676 0.629000
0.198434 -0.010659 0.628000
0.200990 -0.010642 0.627000
0.202426 -0.010642 0.627000
0.204643 -0.010609 0.625000
0.207506 -0.010609 0.625000
0.210032 -0.010592 0.624000
0.211461 -0.010592 0.624000
0.213976 -0.010575 0.623000
0.216482 -0.010558 0.622000
0.218626 -0.010524 0.620000
0.221108 -0.010507 0.619000
0.222526 -0.010507 0.619000
0.224997 -0.010490 0.618000
0.227828 -0.010490 0.618000
0.230658 -0.010490 0.618000
0.232074 -0.010490 0.618000
0.234904 -0.010490 0.618000
0.237735 -0.010490 0.618000
0.240566 -0.010490 0.618000
0.241981 -0.010490 0.618000
0.055759 -0.007384 0.435000
0.058282 -0.007451 0.439000
0.059288 -0.007451 0.439000
0.061298 -0.007451 0.439000
0.063309 -0.007451 0.439000
0.065320 -0.007451 0.439000
0.066325 -0.007451 0.439000
0.068336 -0.007451 0.439000
0.070347 -0.007451 0.439000
0.072358 -0.007451 0.439000
0.073363 -0.007451 0.439000
0.075546 -0.007468 0.440000
0.077561 -0.007468 0.440000
0.071619 -0.006722 0.396000
0.072709 -0.006739 0.397000
0.074715 -0.006756 0.398000
0.076538 -0.006756 0.398000
0.078361 -0.006756 0.398000
0.080386 -0.006772 0.399000
0.081503 -0.006789 0.400000
0.083335 -0.006789 0.400000
0.085380 -0.006806 0.401000
0.087435 -0.006823 0.402000
0.088575 -0.006840 0.403000
0.090645 -0.006857 0.404000
0.092725 -0.006874 0.405000
0.094813 -0.006891 0.406000
0.095743 -0.006891 0.406000
0.097363 -0.006874 0.405000
0.155563 -0.010778 0.635000
0.158722 -0.010795 0.636000
0.161635 -0.010795 0.636000
0.163091 -0.010795 0.636000
0.166004 -0.010795 0.636000
0.168918 -0.010795 0.636000
0.171831 -0.010795 0.636000
0.173287 -0.010795 0.636000
0.176200 -0.010795 0.636000
0.179114 -0.010795 0.636000
0.182027 -0.010795 0.636000
0.183483 -0.010795 0.636000
0.186103 -0.010778 0.635000
0.188417 -0.010744 0.633000
0.191316 -0.010744 0.633000
0.192461 -0.010727 0.632000
0.194738 -0.010693 0.630000
0.197310 -0.010676 0.629000
0.199554 -0.010642 0.627000
0.202426 -0.010642 0.627000
0.203537 -0.010625 0.626000
0.206075 -0.010609 0.625000
0.208603 -0.010592 0.624000
0.211461 -0.010592 0.624000
0.212549 -0.010575 0.623000
0.215057 -0.010558 0.622000
0.217556 -0.010541 0.621000
0.219691 -0.010507 0.619000
0.221108 -0.010507 0.619000
0.223582 -0.010490 0.618000
0.226412 -0.010490 0.618000
0.229243 -0.010490 0.618000
0.232074 -0.010490 0.618000
0.233489 -0.010490 0.618000
0.236320 -0.010490 0.618000
0.239151 -0.010490 0.618000
0.241981 -0.010490 0.618000
0.054762 -0.007384 0.435000
0.056755 -0.007384 0.435000
0.058282 -0.007451 0.439000
0.060293 -0.007451 0.439000
0.062304 -0.007451 0.439000
0.064315 -0.007451 0.439000
0.065320 -0.007451 0.439000
0.067331 -0.007451 0.439000
0.069342 -0.007451 0.439000
0.071352 -0.007451 0.439000
0.073363 -0.007451 0.439000
0.074538 -0.007468 0.440000
0.076553 -0.007468 0.440000
0.070712 -0.006722 0.396000
0.072709 -0.006739 0.397000
0.073618 -0.006739 0.397000
0.075627 -0.006756 0.398000
0.077450 -0.006756 0.398000
0.079472 -0.006772 0.399000
0.080386 -0.006772 0.399000
0.082419 -0.006789 0.400000
0.084251 -0.006789 0.400000
0.086514 -0.006823 0.402000
0.087435 -0.006823 0.402000
0.089498 -0.006840 0.403000
0.091797 -0.006874 0.405000
0.093884 -0.006891 0.406000
0.095743 -0.006891 0.406000
0.096673 -0.006891 0.406000
0.155080 -0.010846 0.639000
0.157265 -0.010795 0.636000
0.160178 -0.010795 0.636000
0.161635 -0.010795 0.636000
0.164548 -0.010795 0.636000
0.167461 -0.010795 0.636000
0.170374 -0.010795 0.636000
0.171831 -0.010795 0.636000
0.174744 -0.010795 0.636000
0.177657 -0.010795 0.636000
0.180570 -0.010795 0.636000
0.183483 -0.010795 0.636000
0.184649 -0.010778 0.635000
0.187262 -0.010761 0.634000
0.189866 -0.010744 0.633000
0.192461 -0.010727 0.632000
0.193602 -0.010710 0.631000
0.195869 -0.010676 0.629000
0.198434 -0.010659 0.628000
0.200990 -0.010642 0.627000
0.202426 -0.010642 0.627000
0.204643 -0.010609 0.625000
0.207506 -0.010609 0.625000
0.210032 -0.010592 0.624000
0.211461 -0.010592 0.624000
0.213976 -0.010575 0.623000
0.216482 -0.010558 0.622000
0.218626 -0.010524 0.620000
0.221108 -0.010507 0.619000
0.222526 -0.010507 0.619000
0.224997 -0.010490 0.618000
0.227828 -0.010490 0.618000
0.230658 -0.010490 0.618000
0.232074 -0.010490 0.618000
0.234904 -0.010490 0.618000
0.237735 -0.010490 0.618000
0.240566 -0.010490 0.618000
0.241981 -0.010490 0.618000
0.056015 -0.006417 0.437000
0.058282 -0.006446 0.439000
0.059288 -0.006446 0.439000
0.061298 -0.006446 0.439000
0.063309 -0.006446 0.439000
0.065320 -0.006446 0.439000
0.066325 -0.006446 0.439000
0.068336 -0.006446 0.439000
0.070347 -0.006446 0.439000
0.072358 -0.006446 0.439000
0.073363 -0.006446 0.439000
0.075546 -0.006461 0.440000
0.069629 -0.005800 0.395000
0.071619 -0.005815 0.396000
0.072526 -0.005815 0.396000
0.074527 -0.005829 0.397000
0.076346 -0.005829 0.397000
0.078164 -0.005829 0.397000
0.080184 -0.005844 0.398000
0.081299 -0.005859 0.399000
0.083127 -0.005859 0.399000
0.085168 -0.005873 0.400000
0.087217 -0.005888 0.401000
0.088355 -0.005903 0.402000
0.090421 -0.005917 0.403000
0.092725 -0.005947 0.405000
0.094813 -0.005961 0.406000
0.095743 -0.005961 0.406000
0.097363 -0.005947 0.405000
0.154829 -0.009280 0.632000
0.157973 -0.009295 0.633000
0.160872 -0.009295 0.633000
0.162578 -0.009309 0.634000
0.165482 -0.009309 0.634000
0.168386 -0.009309 0.634000
0.171290 -0.009309 0.634000
0.172742 -0.009309 0.634000
0.175646 -0.009309 0.634000
0.178550 -0.009309 0.634000
0.181168 -0.009295 0.633000
0.182618 -0.009295 0.633000
0.185224 -0.009280 0.632000
0.187821 -0.009265 0.631000
0.190409 -0.009251 0.630000
0.191548 -0.009236 0.629000
0.193811 -0.009207 0.627000
0.196369 -0.009192 0.626000
0.198918 -0.009177 0.625000
0.201781 -0.009177 0.625000
0.202887 -0.009162 0.624000
0.205415 -0.009148 0.623000
0.207935 -0.009133 0.622000
0.210784 -0.009133 0.622000
0.211867 -0.009118 0.621000
0.214366 -0.009104 0.620000
0.216855 -0.009089 0.619000
0.218981 -0.009060 0.617000
0.220394 -0.009060 0.617000
0.222858 -0.009045 0.616000
0.225680 -0.009045 0.616000
0.228501 -0.009045 0.616000
0.231323 -0.009045 0.616000
0.232734 -0.009045 0.616000
0.235555 -0.009045 0.616000
0.238377 -0.009045 0.616000
0.241198 -0.009045 0.616000
0.055014 -0.006417 0.437000
0.057016 -0.006417 0.437000
0.058282 -0.006446 0.439000
0.060293 -0.006446 0.439000
0.062304 -0.006446 0.439000
0.064315 -0.006446 0.439000
0.065320 -0.006446 0.439000
0.067331 -0.006446 0.439000
0.069342 -0.006446 0.439000
0.071352 -0.006446 0.439000
0.073363 -0.006446 0.439000
0.074538 -0.006461 0.440000
0.076553 -0.006461 0.440000
0.070712 -0.005815 0.396000
0.072526 -0.005815 0.396000
0.073433 -0.005815 0.396000
0.075437 -0.005829 0.397000
0.077255 -0.005829 0.397000
0.079273 -0.005844 0.398000
0.080184 -0.005844 0.398000
0.082213 -0.005859 0.399000
0.084041 -0.005859 0.399000
0.086299 -0.005888 0.401000
0.087217 -0.005888 0.401000
0.089498 -0.005917 0.403000
0.091571 -0.005932 0.404000
0.093884 -0.005961 0.406000
0.095743 -0.005961 0.406000
0.096673 -0.005961 0.406000
0.098290 -0.005947 0.405000
0.156523 -0.009295 0.633000
0.159423 -0.009295 0.633000
0.160872 -0.009295 0.633000
0.164030 -0.009309 0.634000
0.166934 -0.009309 0.634000
0.169838 -0.009309 0.634000
0.171290 -0.009309 0.634000
0.174194 -0.009309 0.634000
0.177098 -0.009309 0.634000
0.179718 -0.009295 0.633000
0.182618 -0.009295 0.633000
0.184068 -0.009295 0.633000
0.186672 -0.009280 0.632000
0.189266 -0.009265 0.631000
0.191548 -0.009236 0.629000
0.192681 -0.009221 0.628000
0.195247 -0.009207 0.627000
0.197802 -0.009192 0.626000
0.200349 -0.009177 0.625000
0.201781 -0.009177 0.625000
0.203989 -0.009148 0.623000
0.206842 -0.009148 0.623000
0.209359 -0.009133 0.622000
0.210784 -0.009133 0.622000
0.213289 -0.009118 0.621000
0.215786 -0.009104 0.620000
0.217920 -0.009074 0.618000
0.220394 -0.009060 0.617000
0.221807 -0.009060 0.617000
0.224269 -0.009045 0.616000
0.227090 -0.009045 0.616000
0.229912 -0.009045 0.616000
0.231323 -0.009045 0.616000
0.234144 -0.009045 0.616000
0.236966 -0.009045 0.616000
0.239787 -0.009045 0.616000
0.241198 -0.009045 0.616000
0.056143 -0.005428 0.438000
0.058282 -0.005441 0.439000
0.059288 -0.005441 0.439000
0.061298 -0.005441 0.439000
0.063309 -0.005441 0.439000
0.065320 -0.005441 0.439000
0.066325 -0.005441 0.439000
0.068336 -0.005441 0.439000
0.070347 -0.005441 0.439000
0.072358 -0.005441 0.439000
0.073363 -0.005441 0.439000
0.075546 -0.005453 0.440000
0.069629 -0.004895 0.395000
0.071619 -0.004908 0.396000
0.072526 -0.004908 0.396000
0.074340 -0.004908 0.396000
0.076154 -0.004908 0.396000
0.078164 -0.004920 0.397000
0.079983 -0.004920 0.397000
0.081096 -0.004932 0.398000
0.082919 -0.004932 0.398000
0.084955 -0.004945 0.399000
0.087217 -0.004970 0.401000
0.088355 -0.004982 0.402000
0.090421 -0.004994 0.403000
0.092496 -0.005007 0.404000
0.094580 -0.005019 0.405000
0.095507 -0.005019 0.405000
0.150251 -0.007746 0.625000
0.154094 -0.007795 0.629000
0.157224 -0.007808 0.630000
0.160110 -0.007808 0.630000
0.161809 -0.007820 0.631000
0.164699 -0.007820 0.631000
0.167590 -0.007820 0.631000
0.170480 -0.007820 0.631000
0.171925 -0.007820 0.631000
0.174815 -0.007820 0.631000
0.177705 -0.007820 0.631000
0.180596 -0.007820 0.631000
0.182041 -0.007820 0.631000
0.184638 -0.007808 0.630000
0.187226 -0.007795 0.629000
0.189503 -0.007771 0.627000
0.190939 -0.007771 0.627000
0.193192 -0.007746 0.625000
0.195741 -0.007733 0.624000
0.198281 -0.007721 0.623000
0.201135 -0.007721 0.623000
0.202237 -0.007709 0.622000
0.204756 -0.007696 0.621000
0.207266 -0.007684 0.620000
0.210106 -0.007684 0.620000
0.211185 -0.007671 0.619000
0.213674 -0.007659 0.618000
0.216155 -0.007647 0.617000
0.218271 -0.007622 0.615000
0.219679 -0.007622 0.615000
0.222135 -0.007609 0.614000
0.224947 -0.007609 0.614000
0.227759 -0.007609 0.614000
0.230572 -0.007609 0.614000
0.231978 -0.007609 0.614000
0.234790 -0.007609 0.614000
0.237603 -0.007609 0.614000
0.240415 -0.007609 0.614000
0.055140 -0.005428 0.438000
0.057146 -0.005428 0.438000
0.058282 -0.005441 0.439000
0.060293 -0.005441 0.439000
0.062304 -0.005441 0.439000
0.064315 -0.005441 0.439000
0.065320 -0.005441 0.439000
0.067331 -0.005441 0.439000
0.069342 -0.005441 0.439000
0.071352 -0.005441 0.439000
0.073363 -0.005441 0.439000
0.074538 -0.005453 0.440000
0.068724 -0.004895 0.395000
0.070712 -0.004908 0.396000
0.072526 -0.004908 0.396000
0.073433 -0.004908 0.396000
0.075247 -0.004908 0.396000
0.077255 -0.004920 0.397000
0.079073 -0.004920 0.397000
0.079983 -0.004920 0.397000
0.082007 -0.004932 0.398000
0.084041 -0.004945 0.399000
0.086084 -0.004957 0.400000
0.087217 -0.004970 0.401000
0.089498 -0.004994 0.403000
0.091344 -0.004994 0.403000
0.093652 -0.005019 0.405000
0.095507 -0.005019 0.405000
0.148819 -0.007746 0.625000
0.151682 -0.007746 0.625000
0.155781 -0.007808 0.630000
0.158667 -0.007808 0.630000
0.160110 -0.007808 0.630000
0.163254 -0.007820 0.631000
0.166145 -0.007820 0.631000
0.169035 -0.007820 0.631000
0.170480 -0.007820 0.631000
0.173370 -0.007820 0.631000
0.176260 -0.007820 0.631000
0.179151 -0.007820 0.631000
0.182041 -0.007820 0.631000
0.183486 -0.007820 0.631000
0.185786 -0.007795 0.629000
0.188367 -0.007783 0.628000
0.190939 -0.007771 0.627000
0.192068 -0.007758 0.626000
0.194624 -0.007746 0.625000
0.197171 -0.007733 0.624000
0.199708 -0.007721 0.623000
0.201135 -0.007721 0.623000
0.203334 -0.007696 0.621000
0.206178 -0.007696 0.621000
0.208686 -0.007684 0.620000
0.210106 -0.007684 0.620000
0.212602 -0.007671 0.619000
0.215090 -0.007659 0.618000
0.217215 -0.007634 0.616000
0.219679 -0.007622 0.615000
0.221088 -0.007622 0.615000
0.223541 -0.007609 0.614000
0.226353 -0.007609 0.614000
0.229166 -0.007609 0.614000
0.230572 -0.007609 0.614000
0.233384 -0.007609 0.614000
0.236196 -0.007609 0.614000
0.239009 -0.007609 0.614000
0.240415 -0.007609 0.614000
0.049221 -0.003880 0.384000
0.050980 -0.003880 0.384000
0.051860 -0.003880 0.384000
0.061298 -0.004435 0.439000
0.063309 -0.004435 0.439000
0.065320 -0.004435 0.439000
0.066325 -0.004435 0.439000
0.068336 -0.004435 0.439000
0.070347 -0.004435 0.439000
0.072358 -0.004435 0.439000
0.073363 -0.004435 0.439000
0.067648 -0.003981 0.394000
0.069629 -0.003991 0.395000
0.071438 -0.003991 0.395000
0.072343 -0.003991 0.395000
0.074152 -0.003991 0.395000
0.076154 -0.004001 0.396000
0.077967 -0.004001 0.396000
0.079781 -0.004001 0.396000
0.080892 -0.004011 0.397000
0.082919 -0.004021 0.398000
0.084955 -0.004031 0.399000
0.087217 -0.004051 0.401000
0.088355 -0.004061 0.402000
0.090421 -0.004072 0.403000
0.092496 -0.004082 0.404000
0.094346 -0.004082 0.404000
0.095272 -0.004082 0.404000
0.150010 -0.006304 0.624000
0.153359 -0.006324 0.626000
0.156476 -0.006335 0.627000
0.159602 -0.006345 0.628000
0.161040 -0.006345 0.628000
0.164177 -0.006355 0.629000
0.167058 -0.006355 0.629000
0.169940 -0.006355 0.629000
0.171380 -0.006355 0.629000
0.174261 -0.006355 0.629000
0.177142 -0.006355 0.629000
0.179737 -0.006345 0.628000
0.181175 -0.006345 0.628000
0.183759 -0.006335 0.627000
0.186333 -0.006324 0.626000
0.188898 -0.006314 0.625000
0.190025 -0.006304 0.624000
0.192574 -0.006294 0.623000
0.195114 -0.006284 0.622000
0.197645 -0.006274 0.621000
0.200489 -0.006274 0.621000
0.201586 -0.006264 0.620000
0.204096 -0.006254 0.619000
0.206597 -0.006244 0.618000
0.209428 -0.006244 0.618000
0.210502 -0.006234 0.617000
0.212983 -0.006223 0.616000
0.215454 -0.006213 0.615000
0.217561 -0.006193 0.613000
0.218965 -0.006193 0.613000
0.221411 -0.006183 0.612000
0.223848 -0.006173 0.611000
0.226646 -0.006173 0.611000
0.229445 -0.006173 0.611000
0.230844 -0.006173 0.611000
0.233643 -0.006173 0.611000
0.236442 -0.006173 0.611000
0.239240 -0.006173 0.611000
0.048342 -0.003880 0.384000
0.050101 -0.003880 0.384000
0.050980 -0.003880 0.384000
0.060293 -0.004435 0.439000
0.062304 -0.004435 0.439000
0.064315 -0.004435 0.439000
0.065320 -0.004435 0.439000
0.067331 -0.004435 0.439000
0.069342 -0.004435 0.439000
0.071352 -0.004435 0.439000
0.073363 -0.004435 0.439000
0.066745 -0.003981 0.394000
0.068724 -0.003991 0.395000
0.070533 -0.003991 0.395000
0.072343 -0.003991 0.395000
0.073247 -0.003991 0.395000
0.075247 -0.004001 0.396000
0.077060 -0.004001 0.396000
0.078874 -0.004001 0.396000
0.079781 -0.004001 0.396000
0.081801 -0.004011 0.397000
0.084041 -0.004031 0.399000
0.086084 -0.004041 0.400000
0.087217 -0.004051 0.401000
0.089498 -0.004072 0.403000
0.091344 -0.004072 0.403000
0.093421 -0.004082 0.404000
0.095272 -0.004082 0.404000
0.095959 -0.004072 0.403000
0.151440 -0.006304 0.624000
0.155040 -0.006335 0.627000
0.157911 -0.006335 0.627000
0.159602 -0.006345 0.628000
0.162737 -0.006355 0.629000
0.165618 -0.006355 0.629000
0.168499 -0.006355 0.629000
0.169940 -0.006355 0.629000
0.172821 -0.006355 0.629000
0.175702 -0.006355 0.629000
0.178583 -0.006355 0.629000
0.181175 -0.006345 0.628000
0.182614 -0.006345 0.628000
0.185195 -0.006335 0.627000
0.187767 -0.006324 0.626000
0.190025 -0.006304 0.624000
0.191454 -0.006304 0.624000
0.194001 -0.006294 0.623000
0.196539 -0.006284 0.622000
0.199067 -0.006274 0.621000
0.200489 -0.006274 0.621000
0.202679 -0.006254 0.619000
0.205514 -0.006254 0.619000
0.208013 -0.006244 0.618000
0.209428 -0.006244 0.618000
0.211915 -0.006234 0.617000
0.214393 -0.006223 0.616000
0.216510 -0.006203 0.614000
0.218965 -0.006193 0.613000
0.220369 -0.006193 0.613000
0.222449 -0.006173 0.611000
0.225247 -0.006173 0.611000
0.228046 -0.006173 0.611000
0.229445 -0.006173 0.611000
0.232244 -0.006173 0.611000
0.235042 -0.006173 0.611000
0.237841 -0.006173 0.611000
0.239240 -0.006173 0.611000
0.049221 -0.003000 0.384000
0.050980 -0.003000 0.384000
0.051860 -0.003000 0.384000
0.053479 -0.002992 0.383000
0.063309 -0.003430 0.439000
0.065320 -0.003430 0.439000
0.066325 -0.003430 0.439000
0.068336 -0.003430 0.439000
0.070347 -0.003430 0.439000
0.072358 -0.003430 0.439000
0.073363 -0.003430 0.439000
0.067648 -0.003078 0.394000
0.069629 -0.003086 0.395000
0.071438 -0.003086 0.395000
0.072343 -0.003086 0.395000
0.074152 -0.003086 0.395000
0.075961 -0.003086 0.395000
0.077771 -0.003086 0.395000
0.079781 -0.003094 0.396000
0.080892 -0.003102 0.397000
0.082919 -0.003109 0.398000
0.084955 -0.003117 0.399000
0.087217 -0.003133 0.401000
0.088355 -0.003141 0.402000
0.090421 -0.003149 0.403000
0.092496 -0.003156 0.404000
0.094346 -0.003156 0.404000
0.095272 -0.003156 0.404000
0.149770 -0.004867 0.623000
0.152624 -0.004867 0.623000
0.155727 -0.004875 0.624000
0.158839 -0.004883 0.625000
0.160271 -0.004883 0.625000
0.163394 -0.004891 0.626000
0.166262 -0.004891 0.626000
0.169129 -0.004891 0.626000
0.170563 -0.004891 0.626000
0.173430 -0.004891 0.626000
0.176297 -0.004891 0.626000
0.179165 -0.004891 0.626000
0.180598 -0.004891 0.626000
0.182880 -0.004875 0.624000
0.185440 -0.004867 0.623000
0.188294 -0.004867 0.623000
0.189416 -0.004860 0.622000
0.191956 -0.004852 0.621000
0.194487 -0.004844 0.620000
0.197008 -0.004836 0.619000
0.199844 -0.004836 0.619000
0.200936 -0.004828 0.618000
0.203437 -0.004820 0.617000
0.205929 -0.004813 0.616000
0.208750 -0.004813 0.616000
0.209820 -0.004805 0.615000
0.212291 -0.004797 0.614000
0.214753 -0.004789 0.613000
0.216851 -0.004774 0.611000
0.218251 -0.004774 0.611000
0.220326 -0.004758 0.609000
0.222749 -0.004750 0.608000
0.225534 -0.004750 0.608000
0.228319 -0.004750 0.608000
0.229711 -0.004750 0.608000
0.232496 -0.004750 0.608000
0.235281 -0.004750 0.608000
0.238066 -0.004750 0.608000
0.048342 -0.003000 0.384000
0.050101 -0.003000 0.384000
0.050980 -0.003000 0.384000
0.052602 -0.002992 0.383000
0.062304 -0.003430 0.439000
0.064315 -0.003430 0.439000
0.065320 -0.003430 0.439000
0.067331 -0.003430 0.439000
0.069342 -0.003430 0.439000
0.071352 -0.003430 0.439000
0.073363 -0.003430 0.439000
0.066745 -0.003078 0.394000
0.068724 -0.003086 0.395000
0.070533 -0.003086 0.395000
0.072343 -0.003086 0.395000
0.073247 -0.003086 0.395000
0.075057 -0.003086 0.395000
0.076866 -0.003086 0.395000
0.078874 -0.003094 0.396000
0.079781 -0.003094 0.396000
0.081801 -0.003102 0.397000
0.084041 -0.003117 0.399000
0.086084 -0.003125 0.400000
0.087217 -0.003133 0.401000
0.089498 -0.003149 0.403000
0.091344 -0.003149 0.403000
0.093421 -0.003156 0.404000
0.095272 -0.003156 0.404000
0.095959 -0.003149 0.403000
0.150954 -0.004860 0.622000
0.154298 -0.004875 0.624000
0.157156 -0.004875 0.624000
0.158839 -0.004883 0.625000
0.161961 -0.004891 0.626000
0.164828 -0.004891 0.626000
0.167695 -0.004891 0.626000
0.169129 -0.004891 0.626000
0.171996 -0.004891 0.626000
0.174864 -0.004891 0.626000
0.177731 -0.004891 0.626000
0.180598 -0.004891 0.626000
0.181741 -0.004883 0.625000
0.184309 -0.004875 0.624000
0.186867 -0.004867 0.623000
0.189416 -0.004860 0.622000
0.190841 -0.004860 0.622000
0.193378 -0.004852 0.621000
0.195907 -0.004844 0.620000
0.198426 -0.004836 0.619000
0.199844 -0.004836 0.619000
0.202024 -0.004820 0.617000
0.204850 -0.004820 0.617000
0.207340 -0.004813 0.616000
0.208750 -0.004813 0.616000
0.211228 -0.004805 0.615000
0.213697 -0.004797 0.614000
0.215805 -0.004781 0.612000
0.218251 -0.004774 0.611000
0.219290 -0.004766 0.610000
0.221720 -0.004758 0.609000
0.224141 -0.004750 0.608000
0.226926 -0.004750 0.608000
0.228319 -0.004750 0.608000
0.231103 -0.004750 0.608000
0.233888 -0.004750 0.608000
0.236673 -0.004750 0.608000
0.238066 -0.004750 0.608000
0.049221 -0.003000 0.384000
0.050980 -0.003000 0.384000
0.051860 -0.003000 0.384000
0.053479 -0.002992 0.383000
0.063309 -0.003430 0.439000
0.065320 -0.003430 0.439000
0.066325 -0.003430 0.439000
0.068336 -0.003430 0.439000
0.070347 -0.003430 0.439000
0.072358 -0.003430 0.439000
0.073363 -0.003430 0.439000
0.067648 -0.003078 0.394000
0.069629 -0.003086 0.395000
0.071438 -0.003086 0.395000
0.072343 -0.003086 0.395000
0.074152 -0.003086 0.395000
0.075961 -0.003086 0.395000
0.077771 -0.003086 0.395000
0.079781 -0.003094 0.396000
0.080892 -0.003102 0.397000
0.082919 -0.003109 0.398000
0.084955 -0.003117 0.399000
0.087217 -0.003133 0.401000
0.088355 -0.003141 0.402000
0.090421 -0.003149 0.403000
0.092496 -0.003156 0.404000
0.094346 -0.003156 0.404000
0.095272 -0.003156 0.404000
0.149770 -0.004867 0.623000
0.152624 -0.004867 0.623000
0.155727 -0.004875 0.624000
0.158839 -0.004883 0.625000
0.160271 -0.004883 0.625000
0.163394 -0.004891 0.626000
0.166262 -0.004891 0.626000
0.169129 -0.004891 0.626000
0.170563 -0.004891 0.626000
0.173430 -0.004891 0.626000
0.176297 -0.004891 0.626000
0.179165 -0.004891 0.626000
0.180598 -0.004891 0.626000
0.182880 -0.004875 0.624000
0.185440 -0.004867 0.623000
0.188294 -0.004867 0.623000
0.189416 -0.004860 0.622000
0.191956 -0.004852 0.621000
0.194487 -0.004844 0.620000
0.197008 -0.004836 0.619000
0.199844 -0.004836 0.619000
0.200936 -0.004828 0.618000
0.203437 -0.004820 0.617000
0.205929 -0.004813 0.616000
0.208750 -0.004813 0.616000
0.209820 -0.004805 0.615000
0.212291 -0.004797 0.614000
0.214753 -0.004789 0.613000
0.216851 -0.004774 0.611000
0.218251 -0.004774 0.611000
0.220326 -0.004758 0.609000
0.222749 -0.004750 0.608000
0.225534 -0.004750 0.608000
0.228319 -0.004750 0.608000
0.229711 -0.004750 0.608000
0.232496 -0.004750 0.608000
0.235281 -0.004750 0.608000
0.238066 -0.004750 0.608000
0.048342 -0.002121 0.384000
0.050101 -0.002121 0.384000
0.050980 -0.002121 0.384000
0.052602 -0.002115 0.383000
0.054356 -0.002115 0.383000
0.064315 -0.002424 0.439000
0.065320 -0.002424 0.439000
0.067331 -0.002424 0.439000
0.069342 -0.002424 0.439000
0.071352 -0.002424 0.439000
0.073363 -0.002424 0.439000
0.066745 -0.002176 0.394000
0.068724 -0.002181 0.395000
0.070533 -0.002181 0.395000
0.072343 -0.002181 0.395000
0.073247 -0.002181 0.395000
0.075057 -0.002181 0.395000
0.076866 -0.002181 0.395000
0.078874 -0.002187 0.396000
0.079781 -0.002187 0.396000
0.081801 -0.002192 0.397000
0.084041 -0.002204 0.399000
0.086084 -0.002209 0.400000
0.087217 -0.002215 0.401000
0.089498 -0.002226 0.403000
0.091344 -0.002226 0.403000
0.093421 -0.002231 0.404000
0.095272 -0.002231 0.404000
0.095959 -0.002226 0.403000
0.150226 -0.003418 0.619000
0.153556 -0.003430 0.621000
0.156400 -0.003430 0.621000
0.158077 -0.003435 0.622000
0.161184 -0.003441 0.623000
0.164038 -0.003441 0.623000
0.166892 -0.003441 0.623000
0.168318 -0.003441 0.623000
0.171172 -0.003441 0.623000
0.174026 -0.003441 0.623000
0.176879 -0.003441 0.623000
0.179733 -0.003441 0.623000
0.180869 -0.003435 0.622000
0.183423 -0.003430 0.621000
0.185967 -0.003424 0.620000
0.188807 -0.003424 0.620000
0.189920 -0.003418 0.619000
0.192755 -0.003418 0.619000
0.195275 -0.003413 0.618000
0.197785 -0.003407 0.617000
0.199198 -0.003407 0.617000
0.201369 -0.003396 0.615000
0.204186 -0.003396 0.615000
0.206666 -0.003391 0.614000
0.208073 -0.003391 0.614000
0.210542 -0.003385 0.613000
0.212653 -0.003374 0.611000
0.215099 -0.003369 0.610000
0.217179 -0.003358 0.608000
0.218212 -0.003352 0.607000
0.220628 -0.003347 0.606000
0.223404 -0.003347 0.606000
0.225806 -0.003341 0.605000
0.227192 -0.003341 0.605000
0.229963 -0.003341 0.605000
0.232734 -0.003341 0.605000
0.235505 -0.003341 0.605000
0.236891 -0.003341 0.605000
0.049221 -0.002121 0.384000
0.050980 -0.002121 0.384000
0.051860 -0.002121 0.384000
0.053479 -0.002115 0.383000
0.063309 -0.002424 0.439000
0.065320 -0.002424 0.439000
0.066325 -0.002424 0.439000
0.068336 -0.002424 0.439000
0.070347 -0.002424 0.439000
0.072358 -0.002424 0.439000
0.073363 -0.002424 0.439000
0.067648 -0.002176 0.394000
0.069629 -0.002181 0.395000
0.071438 -0.002181 0.395000
0.072343 -0.002181 0.395000
0.074152 -0.002181 0.395000
0.075961 -0.002181 0.395000
0.077771 -0.002181 0.395000
0.079781 -0.002187 0.396000
0.080892 -0.002192 0.397000
0.082919 -0.002198 0.398000
0.084955 -0.002204 0.399000
0.087217 -0.002215 0.401000
0.088355 -0.002220 0.402000
0.090421 -0.002226 0.403000
0.092496 -0.002231 0.404000
0.094346 -0.002231 0.404000
0.095272 -0.002231 0.404000
0.096882 -0.002226 0.403000
0.151889 -0.003424 0.620000
0.154978 -0.003430 0.621000
0.158077 -0.003435 0.622000
0.159758 -0.003441 0.623000
0.162611 -0.003441 0.623000
0.165465 -0.003441 0.623000
0.168318 -0.003441 0.623000
0.169745 -0.003441 0.623000
0.172599 -0.003441 0.623000
0.175453 -0.003441 0.623000
0.178306 -0.003441 0.623000
0.179733 -0.003441 0.623000
0.182293 -0.003435 0.622000
0.184845 -0.003430 0.621000
0.187387 -0.003424 0.620000
0.188807 -0.003424 0.620000
0.191338 -0.003418 0.619000
0.193859 -0.003413 0.618000
0.196372 -0.003407 0.617000
0.199198 -0.003407 0.617000
0.200286 -0.003402 0.616000
0.202778 -0.003396 0.615000
0.205260 -0.003391 0.614000
0.208073 -0.003391 0.614000
0.209138 -0.003385 0.613000
0.211600 -0.003380 0.612000
0.214053 -0.003374 0.611000
0.216141 -0.003363 0.609000
0.217179 -0.003358 0.608000
0.219602 -0.003352 0.607000
0.222016 -0.003347 0.606000
0.224421 -0.003341 0.605000
0.227192 -0.003341 0.605000
0.228578 -0.003341 0.605000
0.231349 -0.003341 0.605000
0.234120 -0.003341 0.605000
0.236891 -0.003341 0.605000
0.048342 -0.001241 0.384000
0.050101 -0.001241 0.384000
0.050980 -0.001241 0.384000
0.052602 -0.001238 0.383000
0.054356 -0.001238 0.383000
0.064315 -0.001419 0.439000
0.065320 -0.001419 0.439000
0.067331 -0.001419 0.439000
0.069342 -0.001419 0.439000
0.071352 -0.001419 0.439000
0.065509 -0.001267 0.392000
0.066576 -0.001270 0.393000
0.068550 -0.001274 0.394000
0.070355 -0.001274 0.394000
0.072160 -0.001274 0.394000
0.073062 -0.001274 0.394000
0.074867 -0.001274 0.394000
0.076866 -0.001277 0.395000
0.078874 -0.001280 0.396000
0.079781 -0.001280 0.396000
0.081801 -0.001283 0.397000
0.084041 -0.001290 0.399000
0.086084 -0.001293 0.400000
0.087217 -0.001296 0.401000
0.089498 -0.001303 0.403000
0.091344 -0.001303 0.403000
0.093421 -0.001306 0.404000
0.095272 -0.001306 0.404000
0.095959 -0.001303 0.403000
0.149498 -0.001991 0.616000
0.152814 -0.001998 0.618000
0.155645 -0.001998 0.618000
0.157314 -0.002001 0.619000
0.160408 -0.002004 0.620000
0.163248 -0.002004 0.620000
0.166088 -0.002004 0.620000
0.167508 -0.002004 0.620000
0.170348 -0.002004 0.620000
0.173188 -0.002004 0.620000
0.176028 -0.002004 0.620000
0.178867 -0.002004 0.620000
0.179997 -0.002001 0.619000
0.182536 -0.001998 0.618000
0.185067 -0.001994 0.617000
0.187893 -0.001994 0.617000
0.189000 -0.001991 0.616000
0.191821 -0.001991 0.616000
0.194643 -0.001991 0.616000
0.197144 -0.001988 0.615000
0.198229 -0.001985 0.614000
0.200714 -0.001981 0.613000
0.203522 -0.001981 0.613000
0.205657 -0.001975 0.611000
0.207056 -0.001975 0.611000
0.209511 -0.001972 0.610000
0.211609 -0.001965 0.608000
0.214041 -0.001962 0.607000
0.216465 -0.001959 0.606000
0.217493 -0.001956 0.605000
0.219900 -0.001952 0.604000
0.222298 -0.001949 0.603000
0.225060 -0.001949 0.603000
0.226065 -0.001946 0.602000
0.228823 -0.001946 0.602000
0.231580 -0.001946 0.602000
0.234338 -0.001946 0.602000
0.235716 -0.001946 0.602000
0.049221 -0.001241 0.384000
0.050980 -0.001241 0.384000
0.051860 -0.001241 0.384000
0.053479 -0.001238 0.383000
0.055233 -0.001238 0.383000
0.065320 -0.001419 0.439000
0.066325 -0.001419 0.439000
0.068336 -0.001419 0.439000
0.070347 -0.001419 0.439000
0.072358 -0.001419 0.439000
0.065509 -0.001267 0.392000
0.067476 -0.001270 0.393000
0.069453 -0.001274 0.394000
0.071257 -0.001274 0.394000
0.072160 -0.001274 0.394000
0.073964 -0.001274 0.394000
0.075769 -0.001274 0.394000
0.077771 -0.001277 0.395000
0.079781 -0.001280 0.396000
0.080892 -0.001283 0.397000
0.082919 -0.001286 0.398000
0.084955 -0.001290 0.399000
0.087217 -0.001296 0.401000
0.088355 -0.001299 0.402000
0.090421 -0.001303 0.403000
0.092496 -0.001306 0.404000
0.094346 -0.001306 0.404000
0.095272 -0.001306 0.404000
0.147126 -0.001978 0.612000
0.151154 -0.001994 0.617000
0.154229 -0.001998 0.618000
0.157314 -0.002001 0.619000
0.158988 -0.002004 0.620000
0.161828 -0.002004 0.620000
0.164668 -0.002004 0.620000
0.167508 -0.002004 0.620000
0.168928 -0.002004 0.620000
0.171768 -0.002004 0.620000
0.174608 -0.002004 0.620000
0.177447 -0.002004 0.620000
0.178867 -0.002004 0.620000
0.181414 -0.002001 0.619000
0.183952 -0.001998 0.618000
0.186480 -0.001994 0.617000
0.187893 -0.001994 0.617000
0.190410 -0.001991 0.616000
0.193232 -0.001991 0.616000
0.195735 -0.001988 0.615000
0.198229 -0.001985 0.614000
0.199636 -0.001985 0.614000
0.202118 -0.001981 0.613000
0.204592 -0.001978 0.612000
0.207056 -0.001975 0.611000
0.208455 -0.001975 0.611000
0.210562 -0.001969 0.609000
0.213002 -0.001965 0.608000
0.215077 -0.001959 0.606000
0.216465 -0.001959 0.606000
0.218517 -0.001952 0.604000
0.221283 -0.001952 0.604000
0.223679 -0.001949 0.603000
0.226065 -0.001946 0.602000
0.227444 -0.001946 0.602000
0.230202 -0.001946 0.602000
0.232959 -0.001946 0.602000
0.235716 -0.001946 0.602000
0.048342 -0.000362 0.384000
0.050101 -0.000362 0.384000
0.050980 -0.000362 0.384000
0.052739 -0.000362 0.384000
0.054498 -0.000362 0.384000
0.056257 -0.000362 0.384000
0.065320 -0.000414 0.439000
0.067331 -0.000414 0.439000
0.069342 -0.000414 0.439000
0.071352 -0.000414 0.439000
0.065509 -0.000369 0.392000
0.066576 -0.000370 0.393000
0.068376 -0.000370 0.393000
0.070176 -0.000370 0.393000
0.072160 -0.000371 0.394000
0.073062 -0.000371 0.394000
0.074867 -0.000371 0.394000
0.076866 -0.000372 0.395000
0.078874 -0.000373 0.396000
0.079781 -0.000373 0.396000
0.081801 -0.000374 0.397000
0.084041 -0.000376 0.399000
0.086084 -0.000377 0.400000
0.087217 -0.000378 0.401000
0.089498 -0.000380 0.403000
0.091344 -0.000380 0.403000
0.093421 -0.000381 0.404000
0.095272 -0.000381 0.404000
0.145010 -0.000574 0.609000
0.148770 -0.000578 0.613000
0.152072 -0.000579 0.615000
0.154889 -0.000579 0.615000
0.156552 -0.000580 0.616000
0.159632 -0.000581 0.617000
0.162458 -0.000581 0.617000
0.165284 -0.000581 0.617000
0.166697 -0.000581 0.617000
0.169524 -0.000581 0.617000
0.172350 -0.000581 0.617000
0.175176 -0.000581 0.617000
0.178002 -0.000581 0.617000
0.179124 -0.000580 0.616000
0.181650 -0.000579 0.615000
0.184467 -0.000579 0.615000
0.186980 -0.000578 0.614000
0.188386 -0.000578 0.614000
0.191198 -0.000578 0.614000
0.193695 -0.000578 0.613000
0.196182 -0.000577 0.612000
0.197261 -0.000576 0.611000
0.200059 -0.000576 0.611000
0.202526 -0.000575 0.610000
0.204647 -0.000573 0.608000
0.206039 -0.000573 0.608000
0.208481 -0.000572 0.607000
0.210565 -0.000570 0.605000
0.212984 -0.000569 0.604000
0.215393 -0.000568 0.603000
0.216414 -0.000567 0.602000
0.218808 -0.000566 0.601000
0.221561 -0.000566 0.601000
0.223940 -0.000565 0.600000
0.224939 -0.000564 0.599000
0.227683 -0.000564 0.599000
0.230426 -0.000564 0.599000
0.233170 -0.000564 0.599000
0.234542 -0.000564 0.599000
0.049221 -0.000362 0.384000
0.050980 -0.000362 0.384000
0.051860 -0.000362 0.384000
0.053619 -0.000362 0.384000
0.055378 -0.000362 0.384000
0.065320 -0.000414 0.439000
0.066325 -0.000414 0.439000
0.068336 -0.000414 0.439000
0.070347 -0.000414 0.439000
0.072358 -0.000414 0.439000
0.065509 -0.000369 0.392000
0.067476 -0.000370 0.393000
0.069276 -0.000370 0.393000
0.071257 -0.000371 0.394000
0.072160 -0.000371 0.394000
0.073964 -0.000371 0.394000
0.075769 -0.000371 0.394000
0.077771 -0.000372 0.395000
0.079781 -0.000373 0.396000
0.080892 -0.000374 0.397000
0.082919 -0.000375 0.398000
0.084955 -0.000376 0.399000
0.087217 -0.000378 0.401000
0.088355 -0.000379 0.402000
0.090421 -0.000380 0.403000
0.092496 -0.000381 0.404000
0.094346 -0.000381 0.404000
0.095272 -0.000381 0.404000
0.146885 -0.000576 0.611000
0.150419 -0.000578 0.614000
0.153481 -0.000579 0.615000
0.156552 -0.000580 0.616000
0.158219 -0.000581 0.617000
0.161045 -0.000581 0.617000
0.163871 -0.000581 0.617000
0.166697 -0.000581 0.617000
0.168111 -0.000581 0.617000
0.170937 -0.000581 0.617000
0.173763 -0.000581 0.617000
0.176589 -0.000581 0.617000
0.178002 -0.000581 0.617000
0.180535 -0.000580 0.616000
0.183059 -0.000579 0.615000
0.185876 -0.000579 0.615000
0.186980 -0.000578 0.614000
0.189792 -0.000578 0.614000
0.192605 -0.000578 0.614000
0.195099 -0.000578 0.613000
0.197261 -0.000576 0.611000
0.198660 -0.000576 0.611000
0.201129 -0.000575 0.610000
0.203589 -0.000574 0.609000
0.206039 -0.000573 0.608000
0.207432 -0.000573 0.608000
0.209525 -0.000571 0.606000
0.211951 -0.000570 0.605000
0.214367 -0.000569 0.604000
0.215393 -0.000568 0.603000
0.217793 -0.000567 0.602000
0.220184 -0.000566 0.601000
0.222566 -0.000565 0.600000
0.224939 -0.000564 0.599000
0.226311 -0.000564 0.599000
0.229054 -0.000564 0.599000
0.231798 -0.000564 0.599000
0.234542 -0.000564 0.599000
0.048468 0.000519 0.385000
0.050231 0.000519 0.385000
0.051113 0.000519 0.385000
0.052877 0.000519 0.385000
0.054640 0.000519 0.385000
0.056404 0.000519 0.385000
0.065320 0.000592 0.439000
0.067331 0.000592 0.439000
0.069342 0.000592 0.439000
0.071352 0.000592 0.439000
0.065509 0.000528 0.392000
0.066576 0.000530 0.393000
0.068376 0.000530 0.393000
0.070176 0.000530 0.393000
0.072160 0.000531 0.394000
0.073062 0.000531 0.394000
